# .PCD v.7 - Point Cloud Data file format
VERSION .7
FIELDS x y z
SIZE 4 4 4
TYPE F F F
COUNT 1 1 1
WIDTH 1744
HEIGHT 1
POINTS 1744
DATA ascii
-0.276831 0.528281 1.414005
-0.344242 0.564610 1.448620
-0.411653 0.585650 1.448620
-0.411653 0.573807 1.414005
-0.276831 0.543570 1.448620
-0.209420 0.505518 1.414005
-0.209420 0.522530 1.448620
-0.276831 0.558858 1.483236
-0.344242 0.578175 1.483236
-0.344242 0.564610 1.448620
-0.209420 0.539541 1.483236
-0.479065 0.606690 1.448620
-0.546476 0.627730 1.448620
-0.546476 0.619333 1.414005
-0.613887 0.648770 1.448620
-0.613887 0.642096 1.414005
-0.681299 0.669810 1.448620
-0.681299 0.664859 1.414005
-0.748710 0.690850 1.448620
-0.748710 0.687622 1.414005
-0.411653 0.597492 1.483236
-0.479065 0.616809 1.483236
-0.546476 0.636126 1.483236
-0.546476 0.627730 1.448620
-0.613887 0.655443 1.483236
-0.613887 0.648770 1.448620
-0.681299 0.674760 1.483236
-0.681299 0.669810 1.448620
-0.748710 0.694077 1.483236
-0.479065 0.606690 1.448620
-0.681299 0.659909 1.379389
-0.681299 0.664859 1.414005
-0.276831 0.444018 0.963998
-0.276831 0.445084 0.929382
-0.209420 0.414906 0.929382
-0.209420 0.413474 0.963998
-0.344242 0.474561 0.963998
-0.344242 0.475262 0.929382
-0.411654 0.505104 0.963998
-0.411654 0.505440 0.929382
-0.479065 0.535648 0.963998
-0.479065 0.535618 0.929382
-0.546476 0.566191 0.963998
-0.546476 0.565796 0.929382
-0.479065 0.535677 0.998614
-0.411654 0.504768 0.998614
-0.479065 0.535707 1.033230
-0.546476 0.566981 1.033230
-0.546476 0.566586 0.998614
-0.411654 0.504433 1.033230
-0.344242 0.473860 0.998614
-0.344242 0.473159 1.033230
-0.276831 0.442951 0.998614
-0.276831 0.441885 1.033230
-0.209420 0.412042 0.998614
-0.209420 0.410610 1.033230
-0.344242 0.472457 1.067845
-0.276831 0.440818 1.067845
-0.209420 0.409178 1.067845
-0.276831 0.439751 1.102461
-0.209420 0.407746 1.102461
-0.479065 0.535736 1.067845
-0.411654 0.504097 1.067845
-0.411654 0.503761 1.102461
-0.344242 0.471756 1.102461
-0.479065 0.535766 1.102461
-0.546476 0.567771 1.102461
-0.546476 0.567376 1.067845
-0.613887 0.599015 1.067845
-0.613887 0.598255 1.033230
-0.613887 0.597495 0.998614
-0.681299 0.629529 1.033230
-0.681299 0.628403 0.998614
-0.748710 0.660803 1.033230
-0.748710 0.659312 0.998614
-0.748710 0.662294 1.067845
-0.681299 0.630655 1.067845
-0.681299 0.631781 1.102461
-0.613887 0.599776 1.102461
-0.681299 0.627277 0.963998
-0.748710 0.657821 0.963998
-0.681299 0.626151 0.929382
-0.613887 0.595974 0.929382
-0.613887 0.596734 0.963998
-0.748710 0.656329 0.929382
-0.748710 0.663786 1.102461
-0.748710 0.665277 1.137077
-0.681299 0.632907 1.137077
-0.748710 0.666768 1.171693
-0.681299 0.634033 1.171693
-0.613887 0.600536 1.137077
-0.613887 0.601297 1.171693
-0.546476 0.568166 1.137077
-0.546476 0.568561 1.171693
-0.479065 0.535796 1.137077
-0.479065 0.535825 1.171693
-0.613887 0.602057 1.206309
-0.546476 0.568956 1.206309
-0.479065 0.535855 1.206309
-0.748710 0.668260 1.206309
-0.681299 0.635158 1.206309
-0.411654 0.503425 1.137077
-0.411654 0.503090 1.171693
-0.344242 0.471055 1.137077
-0.344242 0.470354 1.171693
-0.276831 0.438685 1.137077
-0.276831 0.437618 1.171693
-0.209420 0.406314 1.137077
-0.209420 0.404882 1.171693
-0.344242 0.469653 1.206309
-0.276831 0.436551 1.206309
-0.209420 0.403450 1.206309
-0.411654 0.502754 1.206309
-0.276831 0.567471 0.687070
-0.276831 0.584955 0.652454
-0.209420 0.552702 0.652454
-0.209420 0.535478 0.687070
-0.344242 0.599465 0.687070
-0.344242 0.617208 0.652454
-0.411654 0.631458 0.687070
-0.411654 0.649461 0.652454
-0.479065 0.663452 0.687070
-0.479065 0.681714 0.652455
-0.546476 0.695445 0.687071
-0.546476 0.713967 0.652455
-0.479065 0.645190 0.721686
-0.411654 0.613456 0.721686
-0.479065 0.626928 0.756302
-0.546476 0.658403 0.756302
-0.546476 0.676924 0.721686
-0.411654 0.595453 0.756302
-0.344242 0.581722 0.721686
-0.344242 0.563978 0.756302
-0.276831 0.549987 0.721686
-0.276831 0.532504 0.756302
-0.209420 0.518253 0.721686
-0.209420 0.501029 0.756302
-0.344242 0.546235 0.790918
-0.276831 0.515020 0.790918
-0.209420 0.483804 0.790918
-0.276831 0.497536 0.825534
-0.209420 0.466580 0.825534
-0.479065 0.608666 0.790918
-0.411654 0.577450 0.790918
-0.411654 0.559448 0.825534
-0.344242 0.528492 0.825534
-0.479065 0.590404 0.825534
-0.546476 0.621360 0.825534
-0.546476 0.639881 0.790918
-0.613888 0.671097 0.790918
-0.613888 0.689877 0.756302
-0.613888 0.708658 0.721686
-0.681299 0.721352 0.756302
-0.681299 0.740392 0.721686
-0.748710 0.752827 0.756302
-0.748710 0.772126 0.721686
-0.748710 0.733527 0.790918
-0.681299 0.702312 0.790918
-0.681299 0.683272 0.825534
-0.613888 0.652316 0.825534
-0.681299 0.759432 0.687071
-0.748710 0.791426 0.687071
-0.681299 0.778472 0.652455
-0.613888 0.746220 0.652455
-0.613888 0.727439 0.687071
-0.748710 0.810725 0.652455
-0.748710 0.714228 0.825534
-0.748710 0.694928 0.860150
-0.681299 0.664232 0.860150
-0.748710 0.675629 0.894766
-0.681299 0.645192 0.894766
-0.613887 0.633535 0.860150
-0.613887 0.614754 0.894766
-0.546476 0.602838 0.860150
-0.546476 0.584317 0.894766
-0.479065 0.572142 0.860150
-0.479065 0.553880 0.894766
-0.613887 0.595974 0.929382
-0.546476 0.565796 0.929382
-0.479065 0.535618 0.929382
-0.748710 0.656329 0.929382
-0.681299 0.626151 0.929382
-0.411654 0.541445 0.860150
-0.411654 0.523443 0.894766
-0.344242 0.510749 0.860150
-0.344242 0.493005 0.894766
-0.276831 0.480052 0.860150
-0.276831 0.462568 0.894766
-0.209420 0.449355 0.860150
-0.209420 0.432131 0.894766
-0.344242 0.475262 0.929382
-0.276831 0.445084 0.929382
-0.209420 0.414906 0.929382
-0.411654 0.505440 0.929382
0.262459 0.643743 1.517852
0.262459 0.646801 1.483236
0.329871 0.662123 1.483236
0.329871 0.660535 1.517852
0.262459 0.640685 1.552468
0.195048 0.622423 1.552468
0.195048 0.617896 1.587084
0.127637 0.598164 1.587084
0.127637 0.604161 1.552468
0.262459 0.637628 1.587084
0.329871 0.658947 1.552468
0.329871 0.657359 1.587084
0.195048 0.613369 1.621700
0.262459 0.634570 1.621700
0.329871 0.655771 1.621700
0.262459 0.631512 1.656316
0.329871 0.654183 1.656316
0.060225 0.578433 1.587084
0.060225 0.585899 1.552468
-0.007186 0.558702 1.587084
-0.007186 0.567637 1.552468
0.060225 0.570967 1.621700
0.127637 0.592168 1.621700
0.127637 0.586171 1.656316
0.195048 0.608841 1.656316
-0.074597 0.538970 1.587084
-0.074597 0.549376 1.552468
-0.142008 0.519238 1.587084
-0.142008 0.531114 1.552468
-0.074597 0.528565 1.621700
-0.007186 0.549766 1.621700
-0.007186 0.540830 1.656316
0.060225 0.563500 1.656316
-0.209420 0.499507 1.587084
-0.209420 0.512852 1.552468
-0.209420 0.486162 1.621700
-0.142008 0.507363 1.621700
-0.142008 0.495488 1.656316
-0.074597 0.518159 1.656316
-0.142008 0.542989 1.517852
-0.209420 0.526196 1.517852
-0.142008 0.554864 1.483236
-0.074597 0.570187 1.483236
-0.074597 0.559781 1.517852
-0.209420 0.539541 1.483236
-0.209420 0.472818 1.656316
-0.209420 0.459473 1.690932
-0.142008 0.483613 1.690932
-0.209420 0.446129 1.725548
-0.142008 0.471738 1.725548
-0.074597 0.507754 1.690932
-0.074597 0.497348 1.725548
-0.007186 0.531894 1.690932
-0.007186 0.522958 1.725548
0.060225 0.556034 1.690932
0.060225 0.548567 1.725548
-0.074597 0.486943 1.760164
-0.007186 0.514022 1.760164
0.060226 0.541101 1.760164
-0.209420 0.432784 1.760164
-0.142008 0.459863 1.760164
0.127637 0.580174 1.690932
0.127637 0.574177 1.725548
0.195048 0.604314 1.690932
0.195048 0.599787 1.725548
0.262459 0.628454 1.690932
0.262459 0.625397 1.725548
0.329871 0.652595 1.690932
0.329871 0.651006 1.725548
0.195048 0.595260 1.760164
0.262459 0.622339 1.760164
0.329871 0.649418 1.760164
0.127637 0.568180 1.760164
0.262459 0.671355 1.240925
0.262459 0.674863 1.206309
0.329871 0.713636 1.206309
0.329871 0.707197 1.240925
0.262459 0.667847 1.275541
0.329871 0.700758 1.275541
0.262459 0.664339 1.310157
0.329871 0.694319 1.310157
0.262459 0.660832 1.344773
0.329871 0.687880 1.344773
0.262459 0.657324 1.379388
0.329871 0.681441 1.379388
0.262459 0.653816 1.414004
0.329871 0.675002 1.414004
0.262459 0.650308 1.448620
0.329871 0.668562 1.448620
0.262459 0.646801 1.483236
0.329871 0.662123 1.483236
0.195048 0.626950 1.517852
0.195048 0.631478 1.483236
0.127637 0.610158 1.517852
0.127637 0.616155 1.483236
0.060225 0.593366 1.517852
0.060225 0.600832 1.483236
-0.007186 0.576573 1.517852
-0.007186 0.585509 1.483236
0.262459 0.771347 0.963998
0.262459 0.785130 0.929382
0.329870 0.838019 0.929382
0.329870 0.822471 0.963997
0.195048 0.720222 0.963998
0.195048 0.732241 0.929382
0.127637 0.669097 0.963998
0.127637 0.679352 0.929382
0.060225 0.617973 0.963998
0.060225 0.626463 0.929382
-0.007186 0.566848 0.963998
-0.007186 0.573574 0.929382
0.060225 0.609483 0.998614
0.127637 0.658843 0.998613
0.060225 0.600993 1.033229
-0.007186 0.553397 1.033229
-0.007186 0.560123 0.998614
0.127637 0.648589 1.033229
0.195048 0.708203 0.998613
0.195048 0.696184 1.033229
0.262459 0.757563 0.998613
0.262459 0.743780 1.033229
0.329870 0.806923 0.998613
0.329870 0.791375 1.033229
0.195048 0.684165 1.067845
0.262459 0.729996 1.067845
0.329871 0.775827 1.067845
0.262459 0.716213 1.102461
0.329871 0.760280 1.102461
0.060225 0.592503 1.067845
0.127637 0.638334 1.067845
0.127637 0.628080 1.102461
0.195048 0.672146 1.102461
0.060225 0.584013 1.102461
-0.007186 0.539946 1.102461
-0.007186 0.546672 1.067845
-0.074597 0.500841 1.067845
-0.074597 0.505802 1.033229
-0.074597 0.510763 0.998614
-0.142008 0.458206 1.033230
-0.142008 0.461403 0.998614
-0.209420 0.410610 1.033230
-0.209420 0.412042 0.998614
-0.209420 0.409178 1.067845
-0.142008 0.455010 1.067845
-0.142008 0.451813 1.102461
-0.074597 0.495880 1.102461
-0.142008 0.464599 0.963998
-0.209420 0.413474 0.963998
-0.142008 0.467796 0.929382
-0.074597 0.520685 0.929382
-0.074597 0.515724 0.963998
-0.209420 0.414906 0.929382
-0.209420 0.407746 1.102461
-0.209420 0.406314 1.137077
-0.142008 0.448617 1.137077
-0.209420 0.404882 1.171693
-0.142008 0.445420 1.171693
-0.074597 0.490919 1.137077
-0.074597 0.485958 1.171693
-0.007186 0.533221 1.137077
-0.007186 0.526495 1.171693
0.060225 0.575523 1.137077
0.060225 0.567033 1.171693
-0.007186 0.519770 1.206309
-0.074597 0.480997 1.206309
-0.074597 0.485958 1.171693
0.060225 0.558543 1.206309
-0.209420 0.403450 1.206309
-0.142008 0.442224 1.206309
0.127637 0.617825 1.137077
0.127637 0.607571 1.171693
0.195048 0.660127 1.137077
0.195048 0.648108 1.171693
0.262459 0.702430 1.137077
0.262459 0.688646 1.171693
0.329871 0.744732 1.137077
0.329871 0.729184 1.171693
0.195048 0.636089 1.206309
0.262459 0.674863 1.206309
0.329871 0.713636 1.206309
0.127637 0.597316 1.206309
0.262459 0.547435 0.687070
0.262459 0.513479 0.652454
0.329870 0.507875 0.652454
0.329870 0.549143 0.687070
0.801749 0.535453 1.517852
0.801749 0.528769 1.483236
0.869161 0.509718 1.483236
0.869161 0.517584 1.517852
0.734338 0.553322 1.517852
0.734338 0.547819 1.483236
0.666927 0.571191 1.517852
0.666927 0.566870 1.483236
0.599516 0.589059 1.517852
0.599516 0.585921 1.483236
0.532104 0.606928 1.517852
0.532104 0.604971 1.483236
0.599516 0.592199 1.552468
0.666927 0.575511 1.552468
0.599516 0.595338 1.587084
0.532104 0.610843 1.587084
0.532104 0.608886 1.552468
0.666927 0.579832 1.587084
0.734338 0.558824 1.552468
0.734338 0.564327 1.587084
0.801749 0.542137 1.552468
0.801749 0.548821 1.587084
0.869161 0.525450 1.552468
0.869161 0.533316 1.587084
0.734338 0.569829 1.621700
0.801749 0.555506 1.621700
0.869161 0.541182 1.621700
0.801749 0.562190 1.656316
0.869161 0.549048 1.656316
0.599516 0.598477 1.621700
0.666927 0.584153 1.621700
0.666927 0.588474 1.656316
0.734338 0.575332 1.656316
0.599516 0.601616 1.656316
0.532104 0.614757 1.656316
0.532104 0.612800 1.621700
0.464693 0.627124 1.621700
0.464693 0.626348 1.587084
0.464693 0.625573 1.552468
0.397282 0.641854 1.587084
0.397282 0.642260 1.552468
0.329871 0.657359 1.587084
0.329871 0.658947 1.552468
0.329871 0.655771 1.621700
0.397282 0.641447 1.621700
0.397282 0.641041 1.656316
0.464693 0.627899 1.656316
0.397282 0.642666 1.517852
0.329871 0.660535 1.517852
0.397282 0.643073 1.483236
0.464693 0.624022 1.483236
0.464693 0.624797 1.517852
0.329871 0.662123 1.483236
0.329871 0.654183 1.656316
0.329871 0.652595 1.690932
0.397282 0.640635 1.690932
0.329871 0.651006 1.725548
0.397282 0.640228 1.725548
0.464693 0.628675 1.690932
0.464693 0.629450 1.725548
0.532104 0.616715 1.690932
0.532104 0.618672 1.725548
0.599516 0.604754 1.690932
0.599516 0.607893 1.725548
0.464693 0.630225 1.760164
0.532104 0.620629 1.760164
0.599516 0.611032 1.760164
0.329871 0.649418 1.760164
0.397282 0.639822 1.760164
0.666927 0.592794 1.690932
0.666927 0.597115 1.725548
0.734338 0.580834 1.690932
0.734338 0.586337 1.725548
0.801749 0.568874 1.690932
0.801749 0.575559 1.725548
0.869161 0.556914 1.690932
0.869161 0.564780 1.725548
0.734338 0.591839 1.760164
0.801749 0.582243 1.760164
0.869161 0.572647 1.760164
0.666927 0.601436 1.760164
0.801749 0.753706 1.240925
0.801749 0.785840 1.206309
0.869161 0.796154 1.206309
0.869161 0.760350 1.240925
0.801749 0.721572 1.275541
0.869161 0.724545 1.275541
0.801749 0.689438 1.310157
0.869161 0.688741 1.310157
0.801749 0.657304 1.344773
0.869161 0.652936 1.344773
0.801749 0.625170 1.379388
0.869161 0.617132 1.379388
0.801749 0.593036 1.414004
0.869161 0.581327 1.414004
0.801749 0.560903 1.448620
0.869161 0.545522 1.448620
0.801749 0.528769 1.483236
0.869161 0.509718 1.483236
0.801749 0.647252 0.963997
0.801749 0.627454 0.929382
0.869161 0.597374 0.929382
0.869161 0.622221 0.963997
0.734338 0.657535 0.929382
0.801749 0.606021 0.894766
0.734338 0.633268 0.894766
0.801749 0.584587 0.860150
0.734338 0.609001 0.860150
0.801749 0.563153 0.825534
0.734338 0.584734 0.825534
0.801749 0.541720 0.790918
0.734338 0.560467 0.790918
0.801749 0.520286 0.756302
0.734338 0.536199 0.756302
0.801749 0.498853 0.721686
0.734338 0.511932 0.721686
0.801749 0.477419 0.687070
0.734338 0.487665 0.687070
0.801749 0.455985 0.652454
0.734338 0.463398 0.652454
0.801749 0.477419 0.687070
0.801749 0.455985 0.652454
0.869161 0.448573 0.652454
0.869161 0.467173 0.687070
0.801749 0.498853 0.721686
0.869161 0.485773 0.721686
0.801749 0.520286 0.756302
0.869161 0.504373 0.756302
0.801749 0.541720 0.790918
0.869161 0.522973 0.790918
0.801749 0.563153 0.825534
0.869161 0.541573 0.825534
0.801749 0.584587 0.860150
0.869161 0.560173 0.860150
0.801749 0.606021 0.894766
0.869161 0.578774 0.894766
0.801749 0.627454 0.929382
0.869161 0.597374 0.929382
1.341040 0.765687 1.517852
1.341040 0.779555 1.483236
1.408451 0.818103 1.483236
1.408451 0.801130 1.517852
1.341040 0.751818 1.552468
1.408451 0.784157 1.552468
1.341040 0.737950 1.587084
1.408451 0.767183 1.587084
1.341040 0.724082 1.621700
1.408451 0.750210 1.621700
1.341040 0.710213 1.656316
1.408451 0.733237 1.656316
1.341040 0.696345 1.690932
1.408451 0.716264 1.690932
1.341040 0.682477 1.725548
1.408451 0.699290 1.725548
1.341040 0.668608 1.760164
1.408451 0.682317 1.760164
1.341040 0.594177 1.240925
1.341040 0.567694 1.206309
1.408451 0.535057 1.206309
1.408451 0.570438 1.240925
1.341040 0.743259 0.963997
1.341040 0.768340 0.929382
1.408451 0.792763 0.929382
1.408451 0.760550 0.963997
1.341040 0.600902 0.687070
1.341040 0.576983 0.652454
1.408451 0.595327 0.652454
1.408451 0.620007 0.687070
1.273628 0.581798 0.687070
1.273628 0.558639 0.652454
1.206217 0.562694 0.687070
1.206217 0.540294 0.652454
1.138806 0.543590 0.687070
1.138806 0.521950 0.652454
1.071395 0.524485 0.687070
1.071395 0.503606 0.652454
1.138806 0.565230 0.721686
1.206217 0.585094 0.721686
1.138806 0.586869 0.756302
1.071395 0.566245 0.756302
1.071395 0.545365 0.721686
1.206217 0.607494 0.756302
1.273628 0.604958 0.721686
1.273628 0.628118 0.756302
1.341040 0.624822 0.721686
1.341040 0.648742 0.756302
1.408451 0.644686 0.721686
1.408451 0.669366 0.756302
1.273628 0.651277 0.790918
1.341040 0.672661 0.790918
1.408451 0.694045 0.790918
1.341040 0.696581 0.825534
1.408451 0.718725 0.825534
1.138806 0.608509 0.790918
1.206217 0.629893 0.790918
1.206217 0.652293 0.825534
1.273629 0.674437 0.825534
1.138806 0.630149 0.825534
1.071395 0.608005 0.825534
1.071395 0.587125 0.790918
1.003983 0.565741 0.790918
1.003983 0.545621 0.756302
1.003983 0.525501 0.721686
0.936572 0.524997 0.756302
0.936572 0.505637 0.721686
0.869161 0.504373 0.756302
0.869161 0.485773 0.721686
0.869161 0.522973 0.790918
0.936572 0.544357 0.790918
0.936572 0.563717 0.825534
1.003983 0.585861 0.825534
0.936572 0.486277 0.687070
0.869161 0.467173 0.687070
0.936572 0.466917 0.652454
1.003983 0.485261 0.652454
1.003983 0.505381 0.687070
0.869161 0.448573 0.652454
0.869161 0.541573 0.825534
0.869161 0.560173 0.860150
0.936572 0.583077 0.860150
0.869161 0.578774 0.894766
0.936572 0.602437 0.894766
1.003983 0.605981 0.860150
1.003983 0.626101 0.894766
1.071395 0.628885 0.860150
1.071395 0.649765 0.894766
1.138806 0.651789 0.860150
1.138806 0.673429 0.894766
1.003983 0.646221 0.929382
1.071395 0.670645 0.929382
1.138806 0.695069 0.929382
0.869161 0.597374 0.929382
0.936572 0.621797 0.929382
1.206217 0.674693 0.860150
1.206217 0.697092 0.894766
1.273629 0.697597 0.860150
1.273629 0.720756 0.894766
1.341040 0.720500 0.860150
1.341040 0.744420 0.894766
1.408451 0.743404 0.860150
1.408451 0.768084 0.894766
1.273629 0.743916 0.929382
1.341040 0.768340 0.929382
1.408451 0.792763 0.929382
1.206217 0.719492 0.929382
1.071395 0.674095 0.963997
1.071395 0.670645 0.929382
1.138806 0.695069 0.929382
1.138806 0.691386 0.963997
1.071395 0.687894 1.102461
1.071395 0.684444 1.067845
1.138806 0.680337 1.067845
1.138806 0.676654 1.102461
1.341040 0.642936 1.102461
1.341040 0.668017 1.067845
1.408451 0.663910 1.067845
1.408451 0.631697 1.102461
1.071395 0.689133 1.240925
1.071395 0.698243 1.206309
1.138806 0.665606 1.206309
1.138806 0.665394 1.240925
1.071395 0.652693 1.379388
1.071395 0.661803 1.344773
1.138806 0.664758 1.344773
1.138806 0.664546 1.379388
1.341040 0.700107 1.379388
1.341040 0.673625 1.344773
1.408451 0.676580 1.344773
1.408451 0.711961 1.379388
1.071395 0.623914 1.517852
1.071395 0.625362 1.483236
1.138806 0.663911 1.483236
1.138806 0.659357 1.517852
1.071395 0.622465 1.552468
1.138806 0.654803 1.552468
1.071395 0.621016 1.587084
1.138806 0.650250 1.587084
1.071395 0.619568 1.621700
1.138806 0.645696 1.621700
1.071395 0.618119 1.656316
1.138806 0.641143 1.656316
1.071395 0.616670 1.690932
1.138806 0.636589 1.690932
1.071395 0.615222 1.725548
1.138806 0.632035 1.725548
1.071395 0.613773 1.760164
1.138806 0.627482 1.760164
0.532104 0.518404 0.687070
0.532104 0.485637 0.652454
0.599516 0.478224 0.652454
0.599516 0.508158 0.687070
0.666927 0.470811 0.652454
0.666927 0.497912 0.687070
0.464693 0.528651 0.687070
0.464693 0.493050 0.652454
0.397282 0.538897 0.687070
0.397282 0.500462 0.652454
0.329870 0.549143 0.687070
0.329870 0.507875 0.652454
0.329870 0.590411 0.721686
0.397282 0.577331 0.721686
0.464693 0.564252 0.721686
0.397282 0.615766 0.756302
0.397282 0.577331 0.721686
0.464693 0.599853 0.756302
0.532104 0.551172 0.721686
0.532104 0.583939 0.756302
0.599516 0.538092 0.721686
0.599516 0.568026 0.756302
0.666927 0.525012 0.721686
0.666927 0.552113 0.756302
0.329870 0.631679 0.756302
0.329870 0.672947 0.790918
0.397282 0.654200 0.790918
0.464693 0.599853 0.756302
0.464693 0.635454 0.790918
0.532104 0.583939 0.756302
0.532104 0.616707 0.790918
0.599516 0.568026 0.756302
0.599516 0.597960 0.790918
0.666927 0.579213 0.790918
0.329870 0.714215 0.825534
0.397282 0.692635 0.825534
0.397282 0.654200 0.790918
0.464693 0.671055 0.825534
0.329870 0.755483 0.860150
0.397282 0.731069 0.860150
0.464693 0.706656 0.860150
0.599516 0.627894 0.825534
0.666927 0.606314 0.825534
0.532104 0.649474 0.825534
0.599516 0.597960 0.790918
0.532104 0.616707 0.790918
0.464693 0.671055 0.825534
0.532104 0.682242 0.860150
0.599516 0.627894 0.825534
0.599516 0.657828 0.860150
0.666927 0.633415 0.860150
0.397282 0.769504 0.894766
0.397282 0.731069 0.860150
0.464693 0.742257 0.894766
0.532104 0.682242 0.860150
0.532104 0.715009 0.894766
0.599516 0.657828 0.860150
0.599516 0.687762 0.894766
0.532104 0.747777 0.929382
0.464693 0.777858 0.929382
0.464693 0.742257 0.894766
0.599516 0.717696 0.929382
0.329870 0.796751 0.894766
0.329870 0.838019 0.929382
0.397282 0.807938 0.929382
0.666927 0.660515 0.894766
0.599516 0.687762 0.894766
0.666927 0.687616 0.929382
0.532104 0.747377 0.963997
0.532104 0.747777 0.929382
0.599516 0.717696 0.929382
0.599516 0.722346 0.963997
0.532104 0.745779 1.102461
0.532104 0.746179 1.067845
0.599516 0.736296 1.067845
0.599516 0.740946 1.102461
0.801749 0.726445 1.102461
0.801749 0.706647 1.067845
0.869161 0.696764 1.067845
0.869161 0.721612 1.102461
0.936572 0.692657 1.067845
0.936572 0.710372 1.102461
0.532104 0.727129 1.240925
0.532104 0.744580 1.206309
0.599516 0.754895 1.206309
0.599516 0.733773 1.240925
0.532104 0.709678 1.275541
0.599516 0.712652 1.275541
0.532104 0.692227 1.310157
0.599516 0.691530 1.310157
0.532104 0.674776 1.344773
0.599516 0.670408 1.344773
0.532104 0.657325 1.379388
0.599516 0.649286 1.379388
0.532104 0.639874 1.414004
0.599516 0.628164 1.414004
0.532104 0.622422 1.448620
0.599516 0.607042 1.448620
0.532104 0.604971 1.483236
0.599516 0.585921 1.483236
-0.007186 0.540602 0.687070
-0.007186 0.535892 0.652454
0.060225 0.530289 0.652454
0.060225 0.542310 0.687070
-0.007186 0.559443 0.825534
-0.007186 0.554733 0.790918
0.060225 0.578376 0.790918
0.060225 0.590398 0.825534
0.262459 0.683261 0.825534
0.262459 0.649304 0.790918
0.329870 0.672947 0.790918
0.329870 0.714215 0.825534
-0.007186 0.527987 1.240925
-0.007186 0.519770 1.206309
0.060225 0.558543 1.206309
0.060225 0.563829 1.240925
-0.007186 0.536205 1.275541
0.060225 0.569115 1.275541
-0.007186 0.544422 1.310157
0.060225 0.574402 1.310157
-0.007186 0.552640 1.344773
0.060225 0.579688 1.344773
-0.007186 0.560857 1.379389
0.060225 0.584974 1.379389
-0.007186 0.569075 1.414004
0.060225 0.590260 1.414004
-0.007186 0.577292 1.448620
0.060225 0.595546 1.448620
-0.007186 0.585509 1.483236
0.060225 0.600832 1.483236
-1.085766 0.578315 0.687071
-1.085766 0.577888 0.652455
-1.018355 0.624456 0.652455
-1.018355 0.620937 0.687071
-1.085766 0.578741 0.721686
-1.018355 0.617418 0.721686
-1.085766 0.579167 0.756302
-1.018355 0.613899 0.756302
-1.085766 0.579594 0.790918
-1.018355 0.610381 0.790918
-1.085766 0.580020 0.825534
-1.085766 0.579594 0.790918
-1.018355 0.610381 0.790918
-1.018355 0.606862 0.825534
-1.085766 0.605810 0.963998
-1.085766 0.581299 0.929382
-1.018355 0.596305 0.929382
-1.018355 0.616212 0.963998
-1.085766 0.703853 1.102461
-1.085766 0.679342 1.067845
-1.018355 0.675933 1.067845
-1.018355 0.695840 1.102461
-0.816121 0.671799 1.102461
-0.816121 0.665704 1.067845
-0.748710 0.662294 1.067845
-0.748710 0.663786 1.102461
-1.085766 0.758175 1.240925
-1.085766 0.777385 1.206309
-1.018355 0.755560 1.206309
-1.018355 0.740837 1.240925
-1.085766 0.681333 1.379389
-1.085766 0.700544 1.344773
-1.018355 0.696669 1.344773
-1.018355 0.681946 1.379389
-0.816121 0.683783 1.379389
-0.816121 0.685043 1.344773
-0.748710 0.681168 1.344773
-0.748710 0.684395 1.379389
-1.085766 0.634754 1.517852
-1.085766 0.623702 1.483236
-1.018355 0.637777 1.483236
-1.018355 0.641256 1.517852
-1.085766 0.678960 1.656316
-1.085766 0.667909 1.621700
-1.018355 0.651691 1.621700
-1.018355 0.655169 1.656316
-0.816121 0.583796 1.656316
-0.816121 0.603037 1.621700
-0.748710 0.586819 1.621700
-0.748710 0.560005 1.656316
0.532104 0.582319 0.410143
0.532104 0.596131 0.375527
0.599516 0.647444 0.375527
0.599516 0.626291 0.410143
0.532104 0.527072 0.548606
0.532104 0.540884 0.513991
0.599516 0.562834 0.513991
0.599516 0.541681 0.548606
0.801749 0.585509 0.548606
0.801749 0.628684 0.513991
0.869161 0.650634 0.513991
0.869161 0.600119 0.548606
-0.007186 0.586019 0.410143
-0.007186 0.593180 0.375527
0.060225 0.562983 0.375527
0.060225 0.558896 0.410143
-0.007186 0.578858 0.444759
0.060225 0.554809 0.444759
-0.007186 0.571697 0.479375
0.060225 0.550723 0.479375
-0.007186 0.564536 0.513991
0.060225 0.546636 0.513991
-0.007186 0.557375 0.548607
0.060225 0.542549 0.548607
-0.007186 0.550214 0.583222
0.060225 0.538462 0.583222
-0.007186 0.543053 0.617838
0.060225 0.534376 0.617838
-0.007186 0.535892 0.652454
0.060225 0.530289 0.652454
-0.546476 0.537626 0.410143
-0.546476 0.512434 0.375527
-0.479065 0.546702 0.375527
-0.479065 0.563579 0.410143
-0.546476 0.638392 0.548607
-0.546476 0.613200 0.513991
-0.479065 0.614208 0.513991
-0.479065 0.631084 0.548607
-0.276831 0.609162 0.548607
-0.276831 0.617231 0.513991
-0.209420 0.618238 0.513991
-0.209420 0.601854 0.548607
-1.085767 0.571206 0.410143
-1.085767 0.570251 0.375527
-1.018355 0.538127 0.375527
-1.018355 0.548918 0.410143
-1.085766 0.575024 0.548607
-1.085766 0.574069 0.513991
-1.018355 0.581291 0.513991
-1.018355 0.592082 0.548607
-0.816121 0.643256 0.548607
-0.816121 0.602956 0.513991
-0.748710 0.610178 0.513991
-0.748710 0.660315 0.548607
1.071395 0.708310 0.410143
1.071395 0.737553 0.375527
1.138806 0.699173 0.375527
1.138806 0.677020 0.410143
1.071395 0.591336 0.548606
1.071395 0.620580 0.513991
1.138806 0.610561 0.513991
1.138806 0.588408 0.548606
1.341040 0.579626 0.548606
1.341040 0.580507 0.513991
1.408451 0.570488 0.513991
1.408451 0.576698 0.548606
1.206217 0.585481 0.548606
1.206217 0.600543 0.513991
1.273628 0.590525 0.513991
1.273628 0.582553 0.548606
1.206217 0.555357 0.617838
1.206217 0.570419 0.583222
1.273628 0.574582 0.583222
1.273628 0.566610 0.617838
1.341040 0.577864 0.617838
1.341040 0.578745 0.583222
1.408451 0.582908 0.583222
1.408451 0.589118 0.617838
0.936572 0.597191 0.548606
0.936572 0.640616 0.513991
1.003983 0.630598 0.513991
1.003983 0.594264 0.548606
0.936572 0.510342 0.617838
0.936572 0.553766 0.583222
1.003983 0.557929 0.583222
1.003983 0.521595 0.617838
1.071395 0.532849 0.617838
1.071395 0.562092 0.583222
1.138806 0.566256 0.583222
1.138806 0.544103 0.617838
0.936572 0.770890 0.410143
0.936572 0.814315 0.375527
1.003983 0.775934 0.375527
1.003983 0.739600 0.410143
0.936572 0.684041 0.479375
0.936572 0.727465 0.444759
1.003983 0.703266 0.444759
1.003983 0.666932 0.479375
1.071395 0.649823 0.479375
1.071395 0.679066 0.444759
1.138806 0.654867 0.444759
1.138806 0.632714 0.479375
-0.950944 0.609140 0.548607
-0.950944 0.588513 0.513991
-0.883533 0.595734 0.513991
-0.883533 0.626198 0.548607
-0.950944 0.650395 0.617839
-0.950944 0.629768 0.583223
-0.883533 0.656662 0.583223
-0.883533 0.687126 0.617839
-0.816121 0.723857 0.617839
-0.816121 0.683557 0.583223
-0.748710 0.710451 0.583223
-0.748710 0.760588 0.617839
-1.220589 0.540908 0.548607
-1.220589 0.559626 0.513991
-1.153178 0.566848 0.513991
-1.153178 0.557966 0.548607
-1.220589 0.503472 0.617839
-1.220589 0.522190 0.583223
-1.153178 0.549084 0.583223
-1.153178 0.540203 0.617839
-1.085766 0.576934 0.617839
-1.085766 0.575979 0.583223
-1.018355 0.602873 0.583223
-1.018355 0.613665 0.617839
-1.220589 0.615781 0.410143
-1.220589 0.634499 0.375527
-1.153178 0.602375 0.375527
-1.153178 0.593493 0.410143
-1.220589 0.578344 0.479375
-1.220589 0.597063 0.444759
-1.153178 0.584611 0.444759
-1.153178 0.575730 0.479375
-1.085766 0.573115 0.479375
-1.085767 0.572160 0.444759
-1.018355 0.559709 0.444759
-1.018355 0.570500 0.479375
-0.411654 0.623777 0.548607
-0.411654 0.615215 0.513991
-0.344242 0.616223 0.513991
-0.344242 0.616469 0.548607
-0.411654 0.640900 0.617839
-0.411654 0.632338 0.583223
-0.344242 0.616716 0.583223
-0.344242 0.616962 0.617839
-0.276831 0.593024 0.617839
-0.276831 0.601093 0.583223
-0.209420 0.585470 0.583223
-0.209420 0.569086 0.617839
-0.681299 0.653007 0.548607
-0.681299 0.611185 0.513991
-0.613888 0.612193 0.513991
-0.613888 0.645699 0.548607
-0.681299 0.736651 0.617839
-0.681299 0.694829 0.583223
-0.613888 0.679206 0.583223
-0.613888 0.712713 0.617839
-0.546476 0.688775 0.617839
-0.546476 0.663583 0.583223
-0.479065 0.647961 0.583223
-0.479065 0.664837 0.617839
-0.681299 0.485720 0.410143
-0.681299 0.443898 0.375527
-0.613888 0.478166 0.375527
-0.613888 0.511673 0.410143
-0.681299 0.569363 0.479375
-0.681299 0.527542 0.444759
-0.613888 0.545179 0.444759
-0.613888 0.578686 0.479375
-0.546476 0.588009 0.479375
-0.546476 0.562817 0.444759
-0.479065 0.580455 0.444759
-0.479065 0.597331 0.479375
0.127637 0.527723 0.548607
0.127637 0.528735 0.513991
0.195048 0.510835 0.513991
0.195048 0.512896 0.548607
0.195048 0.508773 0.479375
0.127637 0.529748 0.479375
0.195048 0.506711 0.444759
0.127637 0.530760 0.444759
0.195048 0.504649 0.410143
0.127637 0.531773 0.410143
0.195048 0.502587 0.375527
0.127637 0.532785 0.375527
0.127637 0.526710 0.583222
0.195048 0.514958 0.583222
0.127637 0.525698 0.617838
0.195048 0.517020 0.617838
0.127637 0.524685 0.652454
0.195048 0.519082 0.652454
-0.142009 0.587028 0.548607
-0.142009 0.600337 0.513991
-0.074597 0.582437 0.513991
-0.074597 0.572202 0.548607
-0.074597 0.592672 0.479375
-0.142009 0.613647 0.479375
-0.074597 0.602908 0.444759
-0.142009 0.626957 0.444759
-0.074597 0.613143 0.410143
-0.142009 0.640266 0.410143
-0.074597 0.623378 0.375527
-0.142009 0.653576 0.375527
-0.142009 0.573718 0.583223
-0.074597 0.561966 0.583223
-0.142009 0.560408 0.617839
-0.074597 0.551731 0.617838
-0.142009 0.547099 0.652454
-0.074597 0.541495 0.652454
0.666927 0.556291 0.548606
0.666927 0.584784 0.513991
0.734338 0.606734 0.513991
0.734338 0.570900 0.548606
0.666927 0.499304 0.617838
0.666927 0.527797 0.583222
0.734338 0.535066 0.583222
0.734338 0.499232 0.617838
0.801749 0.499160 0.617838
0.801749 0.542335 0.583222
0.869161 0.549603 0.583222
0.869161 0.499088 0.617838
0.936572 0.553766 0.583222
0.936572 0.510342 0.617838
0.869161 0.600119 0.548606
0.936572 0.597191 0.548606
0.936572 0.553766 0.583222
0.397282 0.497853 0.548606
0.397282 0.496983 0.513991
0.464693 0.518934 0.513991
0.464693 0.512463 0.548606
0.397282 0.499593 0.617838
0.397282 0.498723 0.583222
0.464693 0.505992 0.583222
0.464693 0.499521 0.617838
0.532104 0.499448 0.617838
0.532104 0.513260 0.583222
0.599516 0.520529 0.583222
0.599516 0.499376 0.617838
0.397282 0.494374 0.410143
0.397282 0.493505 0.375527
0.464693 0.544818 0.375527
0.464693 0.538347 0.410143
0.397282 0.496114 0.479375
0.397282 0.495244 0.444759
0.464693 0.531876 0.444759
0.464693 0.525405 0.479375
0.532104 0.554695 0.479375
0.532104 0.568507 0.444759
0.599516 0.605139 0.444759
0.599516 0.583986 0.479375
-0.950944 0.631378 1.656316
-0.950944 0.635473 1.621700
-0.883532 0.619255 1.621700
-0.883532 0.607587 1.656316
-0.950944 0.623188 1.725548
-0.950944 0.627283 1.690932
-0.883532 0.595919 1.690932
-0.883532 0.584251 1.725548
-0.816121 0.545313 1.725548
-0.816121 0.564554 1.690932
-0.748710 0.533190 1.690932
-0.748710 0.506376 1.725548
-1.220589 0.726542 1.656316
-1.220589 0.700344 1.621700
-1.153177 0.684126 1.621700
-1.153177 0.702751 1.656316
-1.220589 0.778938 1.725548
-1.220589 0.752740 1.690932
-1.153177 0.721376 1.690932
-1.153177 0.740001 1.725548
-1.085766 0.701063 1.725548
-1.085766 0.690012 1.690932
-1.018355 0.658647 1.690932
-1.018355 0.662126 1.725548
-1.220589 0.621750 1.517852
-1.220589 0.595552 1.483236
-1.153177 0.609627 1.483236
-1.153177 0.628252 1.517852
-1.220589 0.674146 1.587084
-1.220589 0.647948 1.552468
-1.153177 0.646877 1.552468
-1.153177 0.665502 1.587084
-1.085766 0.656857 1.587084
-1.085766 0.645805 1.552468
-1.018355 0.644734 1.552468
-1.018355 0.648212 1.587084
-0.950944 0.682558 1.379389
-0.950944 0.692794 1.344773
-0.883532 0.688918 1.344773
-0.883532 0.683171 1.379389
-0.950944 0.662087 1.448620
-0.950944 0.672323 1.414005
-0.883532 0.677423 1.414005
-0.883532 0.671675 1.448620
-0.816121 0.681262 1.448620
-0.816121 0.682523 1.414005
-0.748710 0.687622 1.414005
-0.748710 0.690850 1.448620
-1.220589 0.680109 1.379389
-1.220589 0.708294 1.344773
-1.153178 0.704419 1.344773
-1.153178 0.680721 1.379389
-1.220589 0.623738 1.448620
-1.220589 0.651923 1.414005
-1.153178 0.657023 1.414005
-1.153178 0.633325 1.448620
-1.085766 0.642913 1.448620
-1.085766 0.662123 1.414005
-1.018355 0.667223 1.414005
-1.018355 0.652500 1.448620
-1.220589 0.792850 1.240925
-1.220589 0.821036 1.206309
-1.153178 0.799211 1.206309
-1.153178 0.775513 1.240925
-1.220589 0.736480 1.310157
-1.220589 0.764665 1.275541
-1.153178 0.751815 1.275541
-1.153178 0.728117 1.310157
-1.085766 0.719754 1.310157
-1.085766 0.738965 1.275541
-1.018355 0.726115 1.275541
-1.018355 0.711392 1.310157
-0.950944 0.687826 1.102461
-0.950944 0.672523 1.067845
-0.883533 0.669114 1.067845
-0.883533 0.679813 1.102461
-0.950944 0.718432 1.171693
-0.950944 0.703129 1.137077
-0.883533 0.690512 1.137077
-0.883533 0.701211 1.171693
-0.816121 0.683990 1.171693
-0.816121 0.677894 1.137077
-0.748710 0.665277 1.137077
-0.748710 0.666768 1.171693
-1.220589 0.719880 1.102461
-1.220589 0.686162 1.067845
-1.153178 0.682752 1.067845
-1.153178 0.711867 1.102461
-1.220589 0.787317 1.171693
-1.220589 0.753599 1.137077
-1.153178 0.740981 1.137077
-1.153178 0.770096 1.171693
-1.085766 0.752875 1.171693
-1.085766 0.728364 1.137077
-1.018355 0.715747 1.137077
-1.018355 0.735653 1.171693
-1.220589 0.585006 0.963998
-1.220589 0.551287 0.929382
-1.153178 0.566293 0.929382
-1.153178 0.595408 0.963998
-1.220589 0.652443 1.033230
-1.220589 0.618724 0.998614
-1.153178 0.624523 0.998614
-1.153178 0.653637 1.033230
-1.085766 0.654832 1.033230
-1.085766 0.630321 0.998614
-1.018355 0.636119 0.998614
-1.018355 0.656026 1.033230
-0.950944 0.633703 0.825534
-0.950944 0.641167 0.790918
-0.883533 0.671954 0.790918
-0.883533 0.660545 0.825534
-0.883533 0.683363 0.756302
-0.950944 0.648631 0.756302
-0.883533 0.694772 0.721686
-0.950944 0.656095 0.721686
-0.883533 0.706181 0.687071
-0.950944 0.663559 0.687071
-0.883533 0.717590 0.652455
-0.950944 0.671023 0.652455
-0.950944 0.618775 0.894766
-0.950944 0.626239 0.860150
-0.883533 0.649136 0.860150
-0.883533 0.637727 0.894766
-1.220589 0.526337 0.825534
-1.220589 0.518020 0.790918
-1.153178 0.548807 0.790918
-1.153178 0.553179 0.825534
-1.153178 0.544435 0.756302
-1.220589 0.509704 0.756302
-1.153178 0.540064 0.721686
-1.220589 0.501387 0.721686
-1.153178 0.535692 0.687071
-1.220589 0.493070 0.687071
-1.153178 0.531321 0.652455
-1.220589 0.484753 0.652455
-1.220589 0.542971 0.894766
-1.220589 0.534654 0.860150
-1.153178 0.557550 0.860150
-1.153178 0.561922 0.894766
-1.085766 0.580873 0.894766
-1.085766 0.580447 0.860150
-1.018355 0.603343 0.860150
-1.018355 0.599824 0.894766
0.127637 0.609090 1.379389
0.127637 0.606736 1.344773
0.195048 0.633784 1.344773
0.195048 0.633207 1.379389
0.195048 0.634360 1.310157
0.127637 0.604381 1.310157
0.195048 0.634936 1.275541
0.127637 0.602026 1.275541
0.195048 0.635513 1.240925
0.127637 0.599671 1.240925
0.195048 0.636089 1.206309
0.127637 0.597316 1.206309
0.127637 0.611445 1.414004
0.195048 0.632631 1.414004
0.127637 0.613800 1.448620
0.195048 0.632054 1.448620
0.127637 0.616155 1.483236
0.195048 0.631478 1.483236
-0.142008 0.512624 1.379389
-0.142008 0.498544 1.344773
-0.074597 0.525592 1.344773
-0.074597 0.536740 1.379389
-0.074597 0.514443 1.310157
-0.142008 0.484464 1.310157
-0.074597 0.503294 1.275541
-0.142008 0.470384 1.275541
-0.074597 0.492145 1.240925
-0.142008 0.456304 1.240925
-0.074597 0.480997 1.206309
-0.142008 0.442224 1.206309
-0.142008 0.526704 1.414005
-0.074597 0.547889 1.414004
-0.142008 0.540784 1.448620
-0.074597 0.559038 1.448620
-0.142008 0.554864 1.483236
-0.074597 0.570187 1.483236
0.127637 0.621352 0.825534
0.127637 0.602018 0.790918
0.195048 0.625661 0.790918
0.195048 0.652306 0.825534
0.127637 0.660019 0.894766
0.127637 0.640685 0.860150
0.195048 0.678951 0.860150
0.195048 0.705596 0.894766
0.262459 0.751174 0.894766
0.262459 0.717217 0.860150
0.329870 0.755483 0.860150
0.329870 0.796751 0.894766
-0.142009 0.497534 0.825534
-0.142009 0.507447 0.790918
-0.074597 0.531090 0.790918
-0.074597 0.528489 0.825534
-0.142008 0.477708 0.894766
-0.142008 0.487621 0.860150
-0.074597 0.525887 0.860150
-0.074597 0.523286 0.894766
-0.007186 0.568864 0.894766
-0.007186 0.564153 0.860150
0.060225 0.602419 0.860150
0.060225 0.614441 0.894766
-0.142009 0.537186 0.687070
-0.142009 0.547099 0.652454
-0.074597 0.541495 0.652454
-0.074597 0.538894 0.687070
-0.142009 0.517360 0.756302
-0.142009 0.527273 0.721686
-0.074597 0.536293 0.721686
-0.074597 0.533691 0.756302
-0.007186 0.550023 0.756302
-0.007186 0.545312 0.721686
0.060225 0.554332 0.721686
0.060225 0.566354 0.756302
0.666927 0.641247 1.379388
0.666927 0.666040 1.344773
0.734338 0.661672 1.344773
0.734338 0.633209 1.379388
0.734338 0.690135 1.310157
0.666927 0.690832 1.310157
0.734338 0.718598 1.275541
0.666927 0.715625 1.275541
0.734338 0.747062 1.240925
0.666927 0.740417 1.240925
0.734338 0.775525 1.206309
0.666927 0.765210 1.206309
0.666927 0.616455 1.414004
0.734338 0.604746 1.414004
0.666927 0.591662 1.448620
0.734338 0.576282 1.448620
0.666927 0.566870 1.483236
0.734338 0.547819 1.483236
0.397282 0.673402 1.379388
0.397282 0.683512 1.344773
0.464693 0.679144 1.344773
0.464693 0.665363 1.379388
0.397282 0.653182 1.448620
0.397282 0.663292 1.414004
0.464693 0.651583 1.414004
0.464693 0.637802 1.448620
0.397282 0.713841 1.240925
0.397282 0.723951 1.206309
0.464693 0.734266 1.206309
0.464693 0.720485 1.240925
0.329871 0.713636 1.206309
0.397282 0.734449 1.171693
0.329871 0.729184 1.171693
0.397282 0.693621 1.310157
0.397282 0.703731 1.275541
0.464693 0.706705 1.275541
0.464693 0.692924 1.310157
0.666927 0.736112 1.102461
0.666927 0.726413 1.067845
0.734338 0.716530 1.067845
0.734338 0.731279 1.102461
0.666927 0.755511 1.171693
0.666927 0.745811 1.137077
0.734338 0.746027 1.137077
0.734338 0.760776 1.171693
0.801749 0.766041 1.171693
0.801749 0.746243 1.137077
0.869161 0.746459 1.137077
0.869161 0.771307 1.171693
0.397282 0.755446 1.102461
0.397282 0.765945 1.067845
0.464693 0.756062 1.067845
0.464693 0.750613 1.102461
0.397282 0.734449 1.171693
0.397282 0.744948 1.137077
0.464693 0.745164 1.137077
0.464693 0.739715 1.171693
0.532104 0.744980 1.171693
0.532104 0.745380 1.137077
0.599516 0.745595 1.137077
0.599516 0.750245 1.171693
0.397282 0.797440 0.963997
0.397282 0.807938 0.929382
0.464693 0.777858 0.929382
0.464693 0.772409 0.963997
0.397282 0.776443 1.033229
0.397282 0.786941 0.998613
0.464693 0.766960 0.998613
0.464693 0.761511 1.033229
0.532104 0.746578 1.033229
0.532104 0.746978 0.998613
0.599516 0.726996 0.998613
0.599516 0.731646 1.033229
0.666927 0.606314 0.825534
0.666927 0.579213 0.790918
0.734338 0.560467 0.790918
0.734338 0.584734 0.825534
0.734338 0.536199 0.756302
0.666927 0.552113 0.756302
0.734338 0.511932 0.721686
0.666927 0.525012 0.721686
0.734338 0.487665 0.687070
0.666927 0.497912 0.687070
0.734338 0.463398 0.652454
0.666927 0.470811 0.652454
0.666927 0.633415 0.860150
0.734338 0.609001 0.860150
0.666927 0.660515 0.894766
0.734338 0.633268 0.894766
0.666927 0.687616 0.929382
0.734338 0.657535 0.929382
1.206217 0.664166 1.656316
1.206217 0.671825 1.621700
1.273629 0.697953 1.621700
1.273629 0.687190 1.656316
1.273629 0.708717 1.587084
1.206217 0.679483 1.587084
1.273629 0.719480 1.552468
1.206217 0.687142 1.552468
1.273629 0.730243 1.517852
1.206217 0.694800 1.517852
1.273629 0.741007 1.483236
1.206217 0.702459 1.483236
1.206217 0.656508 1.690932
1.273629 0.676426 1.690932
1.206217 0.648849 1.725548
1.273629 0.665663 1.725548
1.206217 0.641191 1.760164
1.273629 0.654900 1.760164
0.936572 0.572072 1.656316
0.936572 0.567311 1.621700
1.003983 0.593439 1.621700
1.003983 0.595096 1.656316
1.003983 0.591783 1.587084
0.936572 0.562549 1.587084
1.003983 0.590127 1.552468
0.936572 0.557788 1.552468
1.003983 0.588470 1.517852
0.936572 0.553027 1.517852
1.003983 0.586814 1.483236
0.936572 0.548266 1.483236
0.936572 0.576833 1.690932
1.003983 0.596752 1.690932
0.936572 0.581594 1.725548
1.003983 0.598408 1.725548
0.936572 0.586355 1.760164
1.003983 0.600064 1.760164
1.206217 0.676400 1.379388
1.206217 0.667714 1.344773
1.273629 0.670669 1.344773
1.273629 0.688254 1.379388
1.206217 0.693772 1.448620
1.206217 0.685086 1.414004
1.273629 0.705838 1.414004
1.273629 0.723422 1.448620
1.341040 0.753072 1.448620
1.341040 0.726590 1.414004
1.408451 0.747342 1.414004
1.408451 0.782722 1.448620
0.936572 0.628985 1.379388
0.936572 0.655892 1.344773
1.003983 0.658847 1.344773
1.003983 0.640839 1.379388
0.936572 0.575172 1.448620
0.936572 0.602079 1.414004
1.003983 0.622831 1.414004
1.003983 0.604822 1.448620
1.071395 0.634472 1.448620
1.071395 0.643582 1.414004
1.138806 0.664334 1.414004
1.138806 0.664122 1.448620
0.936572 0.736611 1.240925
0.936572 0.763517 1.206309
1.003983 0.730880 1.206309
1.003983 0.712872 1.240925
0.936572 0.682798 1.310157
0.936572 0.709704 1.275541
1.003983 0.694864 1.275541
1.003983 0.676855 1.310157
1.071395 0.670913 1.310157
1.071395 0.680023 1.275541
1.138806 0.665182 1.275541
1.138806 0.664970 1.310157
1.206217 0.665415 1.102461
1.206217 0.676230 1.067845
1.273629 0.672124 1.067845
1.273629 0.654176 1.102461
1.206217 0.643784 1.171693
1.206217 0.654600 1.137077
1.273629 0.636228 1.137077
1.273629 0.618279 1.171693
1.341040 0.592775 1.171693
1.341040 0.617856 1.137077
1.408451 0.599484 1.137077
1.408451 0.567270 1.171693
0.936572 0.710372 1.102461
0.936572 0.692657 1.067845
1.003983 0.688551 1.067845
1.003983 0.699133 1.102461
0.936572 0.745802 1.171693
0.936572 0.728087 1.137077
1.003983 0.709715 1.137077
1.003983 0.720298 1.171693
1.071395 0.694793 1.171693
1.071395 0.691343 1.137077
1.138806 0.672972 1.137077
1.138806 0.669289 1.171693
0.936572 0.639512 0.963997
0.936572 0.621797 0.929382
1.003983 0.646221 0.929382
1.003983 0.656803 0.963997
0.936572 0.674942 1.033229
0.936572 0.657227 0.998613
1.003983 0.667386 0.998613
1.003983 0.677968 1.033229
1.071395 0.680994 1.033229
1.071395 0.677544 0.998613
1.138806 0.687703 0.998613
1.138806 0.684020 1.033229
1.206217 0.708677 0.963997
1.206217 0.719492 0.929382
1.273629 0.743916 0.929382
1.273629 0.725968 0.963997
1.206217 0.687046 1.033229
1.206217 0.697861 0.998613
1.273629 0.708020 0.998613
1.273629 0.690072 1.033229
1.341040 0.693098 1.033229
1.341040 0.718178 0.998613
1.408451 0.728337 0.998613
1.408451 0.696124 1.033229
1.206217 0.641655 1.240925
1.206217 0.632969 1.206309
1.273629 0.600331 1.206309
1.273629 0.617916 1.240925
1.206217 0.659027 1.310157
1.206217 0.650341 1.275541
1.273629 0.635500 1.275541
1.273629 0.653085 1.310157
1.341040 0.647142 1.310157
1.341040 0.620659 1.275541
1.408451 0.605819 1.275541
1.408451 0.641199 1.310157
0.666927 0.697315 0.963997
0.666927 0.687616 0.929382
0.734338 0.657535 0.929382
0.734338 0.672284 0.963997
0.666927 0.716714 1.033229
0.666927 0.707014 0.998613
0.734338 0.687032 0.998613
0.734338 0.701781 1.033229
0.801749 0.686849 1.033229
0.801749 0.667051 0.998613
0.869161 0.647069 0.998613
0.869161 0.671916 1.033229
0.127637 0.544019 0.687070
0.127637 0.524685 0.652454
0.195048 0.519082 0.652454
0.195048 0.545727 0.687070
0.127637 0.582685 0.756302
0.127637 0.563352 0.721686
0.195048 0.572372 0.721686
0.195048 0.599017 0.756302
0.262459 0.615348 0.756302
0.262459 0.581391 0.721686
0.329870 0.590411 0.721686
0.329870 0.631679 0.756302
-0.950944 0.626614 0.963998
-0.950944 0.611311 0.929382
-0.883533 0.626317 0.929382
-0.883533 0.637016 0.963998
-0.950944 0.657220 1.033230
-0.950944 0.641917 0.998614
-0.883533 0.647715 0.998614
-0.883533 0.658415 1.033230
-0.816121 0.659609 1.033230
-0.816121 0.653514 0.998614
-0.748710 0.659312 0.998614
-0.748710 0.660803 1.033230
-0.950944 0.723500 1.240925
-0.950944 0.733735 1.206309
-0.883532 0.711910 1.206309
-0.883532 0.706162 1.240925
-0.950944 0.703029 1.310157
-0.950944 0.713264 1.275541
-0.883532 0.700414 1.275541
-0.883532 0.694666 1.310157
-0.816121 0.686304 1.310157
-0.816121 0.687564 1.275541
-0.748710 0.674714 1.275541
-0.748710 0.677941 1.310157
-0.950944 0.647757 1.517852
-0.950944 0.651852 1.483236
-0.883532 0.665927 1.483236
-0.883532 0.654259 1.517852
-0.883532 0.671675 1.448620
-0.950944 0.662087 1.448620
-0.950944 0.639568 1.587084
-0.950944 0.643662 1.552468
-0.883532 0.642591 1.552468
-0.883532 0.630923 1.587084
-0.816121 0.622278 1.587084
-0.816121 0.641519 1.552468
-0.748710 0.640448 1.552468
-0.748710 0.613633 1.587084
0.666927 0.670263 0.410143
0.666927 0.698757 0.375527
0.734338 0.750070 0.375527
0.734338 0.714236 0.410143
0.666927 0.613277 0.479375
0.666927 0.641770 0.444759
0.734338 0.678402 0.444759
0.734338 0.642568 0.479375
0.801749 0.671859 0.479375
0.801749 0.715033 0.444759
0.869161 0.751665 0.444759
0.869161 0.701149 0.479375
-0.411654 0.589531 0.410143
-0.411654 0.580970 0.375527
-0.344242 0.615238 0.375527
-0.344242 0.615484 0.410143
-0.411654 0.606654 0.479375
-0.411654 0.598093 0.444759
-0.344242 0.615730 0.444759
-0.344242 0.615977 0.479375
-0.276831 0.625299 0.479375
-0.276831 0.633368 0.444759
-0.209420 0.651006 0.444759
-0.209420 0.634622 0.479375
-0.950944 0.526630 0.410143
-0.950944 0.506003 0.375527
-0.883533 0.473879 0.375527
-0.883533 0.504342 0.410143
-0.950944 0.567885 0.479375
-0.950944 0.547258 0.444759
-0.883533 0.534806 0.444759
-0.883533 0.565270 0.479375
-0.816121 0.562656 0.479375
-0.816121 0.522355 0.444759
-0.748710 0.509904 0.444759
-0.748710 0.560041 0.479375
1.206217 0.645730 0.410143
1.206217 0.660792 0.375527
1.273628 0.622411 0.375527
1.273628 0.614440 0.410143
1.206217 0.615605 0.479375
1.206217 0.630667 0.444759
1.273628 0.606468 0.444759
1.273628 0.598496 0.479375
1.341040 0.581388 0.479375
1.341040 0.582269 0.444759
1.408451 0.558069 0.444759
1.408451 0.564279 0.479375
1.273628 0.598496 0.479375
1.273628 0.606468 0.444759
1.341040 0.582269 0.444759
1.341040 0.581388 0.479375
1.273628 0.590525 0.513991
1.273628 0.598496 0.479375
1.341040 0.581388 0.479375
1.341040 0.580507 0.513991
1.341040 0.580507 0.513991
1.341040 0.581388 0.479375
1.408451 0.564279 0.479375
1.408451 0.570488 0.513991
1.138806 0.632714 0.479375
1.138806 0.654867 0.444759
1.206217 0.630667 0.444759
1.206217 0.615605 0.479375
1.138806 0.610561 0.513991
1.138806 0.632714 0.479375
1.206217 0.615605 0.479375
1.206217 0.600543 0.513991
1.206217 0.600543 0.513991
1.206217 0.615605 0.479375
1.273628 0.598496 0.479375
1.273628 0.590525 0.513991
1.138806 0.677020 0.410143
1.138806 0.699173 0.375527
1.206217 0.660792 0.375527
1.206217 0.645730 0.410143
1.138806 0.654867 0.444759
1.138806 0.677020 0.410143
1.206217 0.645730 0.410143
1.206217 0.630667 0.444759
1.206217 0.630667 0.444759
1.206217 0.645730 0.410143
1.273628 0.614440 0.410143
1.273628 0.606468 0.444759
-0.883533 0.565270 0.479375
-0.883533 0.534806 0.444759
-0.816121 0.522355 0.444759
-0.816121 0.562656 0.479375
-0.883533 0.595734 0.513991
-0.883533 0.565270 0.479375
-0.816121 0.562656 0.479375
-0.816121 0.602956 0.513991
-0.816121 0.602956 0.513991
-0.816121 0.562656 0.479375
-0.748710 0.560041 0.479375
-0.748710 0.610178 0.513991
-0.681299 0.569363 0.479375
-0.681299 0.611185 0.513991
-1.018355 0.570500 0.479375
-1.018355 0.559709 0.444759
-0.950944 0.547258 0.444759
-0.950944 0.567885 0.479375
-1.018355 0.581291 0.513991
-1.018355 0.570500 0.479375
-0.950944 0.567885 0.479375
-0.950944 0.588513 0.513991
-0.950944 0.588513 0.513991
-0.950944 0.567885 0.479375
-0.883533 0.565270 0.479375
-0.883533 0.595734 0.513991
-1.018355 0.548918 0.410143
-1.018355 0.538127 0.375527
-0.950944 0.506003 0.375527
-0.950944 0.526630 0.410143
-1.018355 0.559709 0.444759
-1.018355 0.548918 0.410143
-0.950944 0.526630 0.410143
-0.950944 0.547258 0.444759
-0.950944 0.547258 0.444759
-0.950944 0.526630 0.410143
-0.883533 0.504342 0.410143
-0.883533 0.534806 0.444759
-0.344242 0.615977 0.479375
-0.344242 0.615730 0.444759
-0.276831 0.633368 0.444759
-0.276831 0.625299 0.479375
-0.344242 0.616223 0.513991
-0.344242 0.615977 0.479375
-0.276831 0.625299 0.479375
-0.276831 0.617231 0.513991
-0.276831 0.617231 0.513991
-0.276831 0.625299 0.479375
-0.209420 0.634622 0.479375
-0.209420 0.618238 0.513991
-0.479065 0.597331 0.479375
-0.479065 0.580455 0.444759
-0.411654 0.598093 0.444759
-0.411654 0.606654 0.479375
-0.479065 0.614208 0.513991
-0.479065 0.597331 0.479375
-0.411654 0.606654 0.479375
-0.411654 0.615215 0.513991
-0.411654 0.615215 0.513991
-0.411654 0.606654 0.479375
-0.344242 0.615977 0.479375
-0.344242 0.616223 0.513991
