# .PCD v.7 - Point Cloud Data file format
VERSION .7
FIELDS x y z
SIZE 4 4 4
TYPE F F F
COUNT 1 1 1
WIDTH 1685
HEIGHT 1
POINTS 1685
DATA ascii
-1.293000 -0.198923 1.091692
-1.293000 -0.184688 1.120539
-1.293000 -0.171983 1.380158
-1.293000 -0.170452 1.149385
-1.293000 -0.147747 1.351312
-1.293000 -0.156216 1.178232
-1.293000 -0.141981 1.207078
-1.293000 -0.123510 1.322465
-1.293000 -0.127745 1.235925
-1.293000 -0.113510 1.264772
-1.293000 -0.099274 1.293618
1.347276 -0.221106 1.553237
1.403452 -0.255517 1.553237
1.403452 -0.264564 1.524390
1.347275 -0.225963 1.524390
1.347275 0.041794 1.322464
1.403451 0.072011 1.322464
1.403451 0.120093 1.293617
1.347275 0.080045 1.293617
1.347275 0.023144 1.091691
1.403451 0.058353 1.091691
1.403451 0.049533 1.062844
1.347275 0.015016 1.062844
1.347275 0.031273 1.120538
1.403451 0.067173 1.120538
1.347275 0.039402 1.149384
1.403451 0.075993 1.149384
1.347275 0.047530 1.178231
1.403451 0.084813 1.178231
1.347275 0.055659 1.207077
1.403451 0.093633 1.207077
1.291099 0.010248 1.178231
1.291099 0.002810 1.149384
1.234923 -0.027035 1.178231
1.234923 -0.020289 1.207077
1.291099 0.017685 1.207077
1.234923 -0.033781 1.149384
1.291099 -0.004627 1.120538
1.234923 -0.040527 1.120538
1.291099 -0.012064 1.091691
1.234923 -0.047273 1.091691
1.291099 -0.019502 1.062844
1.234923 -0.054019 1.062844
1.178747 -0.076427 1.120538
1.178747 -0.082482 1.091691
1.178747 -0.088537 1.062845
1.122571 -0.117691 1.091691
1.122571 -0.123054 1.062845
1.178747 -0.064318 1.178231
1.178747 -0.070373 1.149384
1.122571 -0.106964 1.149384
1.122571 -0.112327 1.120538
1.122571 -0.101601 1.178231
1.122571 -0.096237 1.207078
1.178747 -0.058263 1.207078
1.178747 -0.052208 1.235924
1.234923 -0.013543 1.235924
1.291099 0.025122 1.235924
1.234923 -0.006797 1.264771
1.291099 0.032559 1.264771
1.234923 -0.000051 1.293617
1.291099 0.039997 1.293617
1.178747 -0.040099 1.293617
1.178747 -0.046154 1.264771
1.122571 -0.085510 1.264771
1.122571 -0.090874 1.235924
1.347275 0.071916 1.264771
1.347275 0.080045 1.293617
1.403451 0.111273 1.264771
1.403451 0.102453 1.235924
1.347275 0.063787 1.235924
1.403451 0.120093 1.293617
1.122571 -0.080147 1.293617
1.066395 -0.120195 1.293617
1.066395 -0.124867 1.264771
1.010219 -0.160243 1.293617
1.010219 -0.164224 1.264771
1.066395 -0.129539 1.235924
1.010219 -0.168204 1.235924
1.066395 -0.134211 1.207078
1.010219 -0.172185 1.207078
1.066395 -0.138883 1.178231
1.010219 -0.176166 1.178231
0.954043 -0.206870 1.235924
0.954043 -0.210159 1.207078
0.954043 -0.213449 1.178231
0.954043 -0.200291 1.293617
0.954043 -0.203580 1.264771
1.066395 -0.143555 1.149384
1.010219 -0.180147 1.149384
1.066395 -0.148227 1.120538
1.010219 -0.184127 1.120538
1.066395 -0.152899 1.091691
1.010219 -0.188108 1.091691
1.066395 -0.157571 1.062845
1.010219 -0.192089 1.062845
0.954043 -0.220027 1.120538
0.954043 -0.223317 1.091691
0.954043 -0.226606 1.062845
0.954043 -0.216738 1.149384
1.347275 -0.239648 0.860918
1.403451 -0.262753 0.860918
1.403451 -0.307365 0.832072
1.347275 -0.276029 0.832072
1.347275 -0.304368 0.630146
1.403451 -0.323610 0.630146
1.403451 -0.325931 0.601299
1.347275 -0.308416 0.601299
1.347275 -0.300319 0.658992
1.403451 -0.321290 0.658992
1.347275 -0.296271 0.687839
1.403451 -0.318969 0.687839
1.347275 -0.292222 0.716685
1.403451 -0.316648 0.716685
1.347275 -0.288174 0.745532
1.403451 -0.314328 0.745532
1.347275 -0.284126 0.774379
1.403451 -0.312007 0.774379
1.347275 -0.280077 0.803225
1.403451 -0.309686 0.803225
1.347275 -0.276029 0.832072
1.403451 -0.307365 0.832072
-0.899767 -0.181320 1.553238
-0.843591 -0.164925 1.553238
-0.843591 -0.149920 1.524391
-0.899767 -0.167826 1.524391
-0.899767 -0.194814 1.582084
-0.843591 -0.179930 1.582084
-0.899767 -0.208308 1.610931
-0.843591 -0.194934 1.610931
-0.899767 -0.221802 1.639777
-0.843591 -0.209939 1.639777
-0.899767 -0.235296 1.668624
-0.843591 -0.224944 1.668624
-0.955943 -0.221682 1.610931
-0.955943 -0.233665 1.639777
-0.899767 -0.221802 1.639777
-0.955943 -0.209698 1.582084
-0.899767 -0.248791 1.697471
-0.843591 -0.239949 1.697471
-0.899767 -0.262285 1.726317
-0.843591 -0.254953 1.726317
-0.899767 -0.275779 1.755164
-0.843591 -0.269958 1.755164
-0.787415 -0.248464 1.726317
-0.787415 -0.262074 1.755164
-0.731239 -0.241974 1.726317
-0.731239 -0.229759 1.697471
-0.787415 -0.234854 1.697471
-0.731239 -0.217544 1.668624
-0.787415 -0.221244 1.668624
-0.731239 -0.205328 1.639777
-0.787415 -0.207634 1.639777
-0.843591 -0.239949 1.697471
-0.843591 -0.224944 1.668624
-0.843591 -0.209939 1.639777
-0.731239 -0.254189 1.755164
-0.675063 -0.235484 1.726317
-0.675063 -0.246305 1.755164
-0.618887 -0.228994 1.726317
-0.618887 -0.238420 1.755164
-0.562711 -0.222505 1.726317
-0.562711 -0.230536 1.755164
-0.562711 -0.214474 1.697470
-0.618887 -0.219569 1.697470
-0.562711 -0.206443 1.668624
-0.618887 -0.210143 1.668624
-0.562711 -0.198413 1.639777
-0.618887 -0.200718 1.639777
-0.562711 -0.190382 1.610931
-0.618887 -0.191292 1.610931
-0.562711 -0.182351 1.582084
-0.618887 -0.181867 1.582084
-0.562711 -0.174320 1.553237
-0.618887 -0.172441 1.553237
-0.562711 -0.166290 1.524391
-0.618887 -0.163016 1.524391
-0.675063 -0.203023 1.639777
-0.675063 -0.192203 1.610931
-0.675063 -0.181382 1.582084
-0.618887 -0.181867 1.582084
-0.618887 -0.191292 1.610931
-0.675063 -0.170562 1.553237
-0.618887 -0.172441 1.553237
-0.675063 -0.159742 1.524391
-0.675063 -0.213844 1.668624
-0.618887 -0.200718 1.639777
-0.618887 -0.210143 1.668624
-0.562711 -0.174320 1.553237
-0.506535 -0.169563 1.524391
-0.506535 -0.176199 1.553237
-0.562711 -0.182351 1.582084
-0.506535 -0.182835 1.582084
-0.562711 -0.190382 1.610931
-0.506535 -0.189471 1.610931
-0.562711 -0.198413 1.639777
-0.506535 -0.196107 1.639777
-0.562711 -0.206443 1.668624
-0.506535 -0.202743 1.668624
-0.562711 -0.214474 1.697470
-0.506535 -0.209379 1.697470
-0.562711 -0.222505 1.726317
-0.506535 -0.216015 1.726317
-0.506535 -0.222651 1.755164
-0.506535 -0.189471 1.610931
-0.450359 -0.183320 1.582084
-0.450359 -0.188561 1.610931
-0.506535 -0.196107 1.639777
-0.450358 -0.193802 1.639777
-0.506535 -0.202743 1.668624
-0.450358 -0.199043 1.668624
-0.506535 -0.209379 1.697470
-0.450358 -0.204284 1.697470
-0.450359 -0.188561 1.610931
-0.394182 -0.183804 1.582084
-0.394182 -0.187650 1.610931
-0.450358 -0.193802 1.639777
-0.394182 -0.191497 1.639777
-0.450358 -0.199043 1.668624
-0.394182 -0.195343 1.668624
-0.450358 -0.204284 1.697470
-0.394182 -0.199189 1.697470
-0.450358 -0.209525 1.726317
-0.394182 -0.203036 1.726317
-0.450358 -0.214767 1.755164
-0.394182 -0.206882 1.755164
-0.450358 -0.209525 1.726317
-0.506535 -0.216015 1.726317
-0.394182 -0.179958 1.553237
-0.450359 -0.178079 1.553237
-0.394182 -0.176111 1.524391
-0.450359 -0.172837 1.524391
-0.506535 -0.176199 1.553237
-0.450359 -0.178079 1.553237
-0.506535 -0.182835 1.582084
-0.450359 -0.183320 1.582084
-0.506535 -0.169563 1.524391
-0.562711 -0.166290 1.524391
-0.506535 -0.160529 1.495544
-0.562711 -0.162845 1.495544
-0.000950 -0.217869 1.553237
0.055226 -0.223284 1.553237
0.055226 -0.267434 1.524390
-0.000950 -0.256019 1.524390
0.448459 -0.219087 1.553237
0.504635 -0.218487 1.553237
0.504635 -0.205637 1.524390
0.448458 -0.213362 1.524390
0.897867 -0.010014 1.553237
0.954043 0.019768 1.553237
0.954043 0.044241 1.524390
0.897867 0.013006 1.524390
0.897867 -0.033034 1.582083
0.954043 -0.004705 1.582083
0.897867 -0.056054 1.610930
0.954043 -0.029178 1.610930
0.897867 -0.079074 1.639776
0.954043 -0.053651 1.639776
0.897867 -0.102094 1.668623
0.954043 -0.078124 1.668623
0.841691 -0.104498 1.639777
0.841691 -0.082930 1.610930
0.785515 -0.129921 1.639777
0.785515 -0.150036 1.668623
0.841691 -0.126065 1.668623
0.785515 -0.109807 1.610930
0.841691 -0.061363 1.582083
0.785515 -0.089692 1.582083
0.841691 -0.039796 1.553237
0.785515 -0.069578 1.553237
0.841691 -0.018228 1.524390
0.785515 -0.049463 1.524390
0.729339 -0.118021 1.582083
0.729339 -0.099360 1.553237
0.729339 -0.080698 1.524390
0.673163 -0.129141 1.553237
0.673163 -0.111933 1.524390
0.729339 -0.155345 1.639777
0.729339 -0.136683 1.610930
0.673163 -0.163559 1.610930
0.673163 -0.146350 1.582083
0.673163 -0.180768 1.639777
0.673163 -0.197977 1.668623
0.729339 -0.174006 1.668623
0.729339 -0.192668 1.697470
0.785515 -0.170150 1.697470
0.841691 -0.147632 1.697470
0.785515 -0.190265 1.726316
0.841691 -0.169200 1.726316
0.785515 -0.210379 1.755163
0.841691 -0.190767 1.755163
0.729339 -0.229991 1.755163
0.729339 -0.211330 1.726316
0.673163 -0.232395 1.726316
0.673163 -0.215186 1.697470
0.897867 -0.148135 1.726316
0.897867 -0.171155 1.755163
0.954043 -0.127070 1.726316
0.954043 -0.102597 1.697470
0.897867 -0.125115 1.697470
0.954043 -0.151543 1.755163
0.673163 -0.249604 1.755163
0.616987 -0.269216 1.755163
0.616987 -0.253460 1.726316
0.560811 -0.288828 1.755163
0.560811 -0.274525 1.726316
0.616987 -0.237704 1.697470
0.560811 -0.260221 1.697470
0.616987 -0.221948 1.668623
0.560811 -0.245918 1.668623
0.616987 -0.206192 1.639777
0.560811 -0.231615 1.639777
0.504635 -0.282739 1.697470
0.504635 -0.269889 1.668623
0.504635 -0.257038 1.639777
0.504635 -0.308440 1.755163
0.504635 -0.295590 1.726316
0.616987 -0.190435 1.610930
0.560811 -0.217312 1.610930
0.616987 -0.174679 1.582083
0.560811 -0.203009 1.582083
0.616987 -0.158923 1.553237
0.560811 -0.188705 1.553237
0.616987 -0.143167 1.524390
0.560811 -0.174402 1.524390
0.504635 -0.231338 1.582083
0.504635 -0.218487 1.553237
0.504635 -0.205637 1.524390
0.504635 -0.244188 1.610930
-0.899767 -0.296742 1.322465
-0.843591 -0.321489 1.322465
-0.843591 -0.345999 1.293618
-0.899767 -0.315158 1.293618
-0.450359 -0.070458 1.322464
-0.394183 -0.034596 1.322464
-0.394183 -0.014379 1.293618
-0.450359 -0.055832 1.293618
-0.394183 0.002202 1.264771
-0.450359 -0.038406 1.264771
-0.394183 0.018784 1.235925
-0.450359 -0.020981 1.235925
-0.506535 -0.097284 1.293618
-0.506535 -0.079015 1.264771
-0.562711 -0.138737 1.293618
-0.562711 -0.119623 1.264771
-0.506535 -0.060745 1.235925
-0.562711 -0.100510 1.235925
-0.506535 -0.042476 1.207078
-0.562711 -0.081396 1.207078
-0.506535 -0.024206 1.178232
-0.562711 -0.062283 1.178232
-0.506535 -0.005937 1.149385
-0.562711 -0.043169 1.149385
-0.506535 0.012333 1.120538
-0.562711 -0.024055 1.120538
-0.506535 0.030603 1.091692
-0.562711 -0.004942 1.091692
-0.506535 0.048872 1.062845
-0.562711 0.014172 1.062845
-0.618887 -0.060444 1.120538
-0.618887 -0.040486 1.091692
-0.618887 -0.020529 1.062845
-0.675063 -0.076030 1.091692
-0.675063 -0.055229 1.062845
-0.618887 -0.100359 1.178232
-0.618887 -0.080401 1.149385
-0.675063 -0.117634 1.149385
-0.675063 -0.096832 1.120538
-0.675063 -0.138435 1.178232
-0.675063 -0.159237 1.207078
-0.618887 -0.120316 1.207078
-0.618887 -0.140274 1.235925
-0.618887 -0.160232 1.264771
-0.675063 -0.200840 1.264771
-0.675063 -0.180038 1.235925
-0.618887 -0.180189 1.293618
-0.675063 -0.221642 1.293618
-0.731239 -0.263094 1.293618
-0.731239 -0.241449 1.264771
-0.787415 -0.304547 1.293618
-0.787415 -0.282057 1.264771
-0.731239 -0.219803 1.235925
-0.787415 -0.259567 1.235925
-0.731239 -0.198157 1.207078
-0.787415 -0.237078 1.207078
-0.731239 -0.176512 1.178232
-0.787415 -0.214588 1.178232
-0.843591 -0.299332 1.235925
-0.843591 -0.275998 1.207078
-0.843591 -0.252664 1.178232
-0.843591 -0.345999 1.293618
-0.843591 -0.322665 1.264771
-0.731239 -0.154866 1.149385
-0.787415 -0.192098 1.149385
-0.731239 -0.133220 1.120538
-0.787415 -0.169609 1.120539
-0.731239 -0.111575 1.091692
-0.787415 -0.147119 1.091692
-0.731239 -0.089929 1.062845
-0.787415 -0.124630 1.062845
-0.843591 -0.205997 1.120539
-0.843591 -0.182663 1.091692
-0.843591 -0.159330 1.062845
-0.843591 -0.229331 1.149385
-0.000950 0.042474 1.322464
0.055226 0.053483 1.322464
0.055226 0.099329 1.293618
-0.000950 0.085115 1.293618
-0.000950 -0.000168 1.351311
0.055226 0.007638 1.351311
-0.000950 -0.042810 1.380157
0.055226 -0.038207 1.380157
-0.000950 -0.085452 1.409004
0.055226 -0.084053 1.409004
-0.000950 -0.128093 1.437851
0.055226 -0.129898 1.437851
-0.057126 -0.086851 1.409004
-0.057126 -0.047413 1.380157
-0.057126 -0.007975 1.351311
-0.000950 -0.170735 1.466697
0.055226 -0.175743 1.466697
-0.057126 -0.165727 1.466697
-0.057126 -0.126289 1.437851
-0.000950 -0.213377 1.495544
0.055226 -0.175743 1.466697
0.055226 -0.221589 1.495544
0.111402 -0.136140 1.437851
0.111402 -0.177330 1.466697
0.055226 -0.221589 1.495544
0.111402 -0.218520 1.495544
0.055226 -0.267434 1.524390
0.111402 -0.259709 1.524390
-0.000950 -0.256019 1.524390
0.055226 -0.267434 1.524390
-0.113302 -0.052015 1.380158
-0.057126 -0.047413 1.380157
-0.113302 -0.015781 1.351311
-0.057126 0.031464 1.322464
-0.113302 0.020454 1.322464
-0.057126 0.070902 1.293618
-0.113302 0.056688 1.293618
-0.113302 -0.088250 1.409004
-0.057126 -0.086851 1.409004
-0.113302 -0.124484 1.437851
-0.057126 -0.126289 1.437851
-0.113302 -0.160719 1.466697
-0.057126 -0.165727 1.466697
-0.113302 -0.196954 1.495544
-0.057126 -0.205165 1.495544
-0.113302 -0.233188 1.524391
-0.057126 -0.244603 1.524391
-0.169478 0.009444 1.322464
-0.113302 0.020454 1.322464
-0.169478 -0.023587 1.351311
-0.113302 -0.015781 1.351311
-0.169478 0.042475 1.293618
-0.169478 -0.056618 1.380158
-0.113302 -0.052015 1.380158
-0.169478 -0.089649 1.409004
-0.113302 -0.088250 1.409004
-0.169478 -0.122680 1.437851
-0.113302 -0.124484 1.437851
-0.169478 -0.155711 1.466697
-0.113302 -0.160719 1.466697
-0.169478 -0.188742 1.495544
-0.113302 -0.196954 1.495544
-0.169478 -0.221773 1.524391
0.448458 -0.120565 1.322464
0.504634 -0.145430 1.322464
0.504634 -0.136829 1.293618
0.448458 -0.107309 1.293618
0.897867 -0.166687 1.322464
0.954043 -0.169724 1.322464
0.954043 -0.200291 1.293617
0.897867 -0.192358 1.293617
-0.899767 -0.184696 1.091692
-0.843591 -0.182663 1.091692
-0.843591 -0.159330 1.062845
-0.899767 -0.166058 1.062845
-0.450359 0.066147 1.091692
-0.394183 0.101691 1.091692
-0.394183 0.118273 1.062845
-0.450359 0.083573 1.062845
-0.450359 0.048721 1.120538
-0.394183 0.085110 1.120538
-0.450359 0.031296 1.149385
-0.394183 0.068528 1.149385
-0.450359 0.013870 1.178232
-0.394183 0.051947 1.178232
-0.450359 -0.003555 1.207078
-0.394183 0.035365 1.207078
-0.000950 -0.027837 1.091692
0.055226 -0.046341 1.091692
0.055226 -0.067151 1.062845
-0.000950 -0.043973 1.062845
0.448458 -0.261426 1.091691
0.504634 -0.292152 1.091691
0.504634 -0.314341 1.062845
0.448458 -0.283443 1.062845
0.448458 -0.239409 1.120538
0.504634 -0.269963 1.120538
0.448458 -0.217392 1.149385
0.504634 -0.247774 1.149385
0.448458 -0.195376 1.178231
0.504634 -0.225585 1.178231
0.448458 -0.173359 1.207078
0.504634 -0.203396 1.207078
0.392282 -0.165167 1.178231
0.392282 -0.187011 1.149385
0.336106 -0.134957 1.178231
0.336106 -0.113285 1.207078
0.392282 -0.143322 1.207078
0.336106 -0.156629 1.149385
0.392282 -0.208855 1.120538
0.336106 -0.178301 1.120538
0.392282 -0.230699 1.091691
0.336106 -0.199973 1.091691
0.392282 -0.252544 1.062845
0.336106 -0.221645 1.062845
0.279930 -0.147747 1.120538
0.279930 -0.169247 1.091691
0.279930 -0.190746 1.062845
0.223754 -0.138520 1.091691
0.223754 -0.159848 1.062845
0.279930 -0.104748 1.178231
0.279930 -0.126248 1.149385
0.223754 -0.095866 1.149385
0.223754 -0.117193 1.120538
0.223754 -0.074539 1.178231
0.223754 -0.053212 1.207078
0.279930 -0.083249 1.207078
0.279930 -0.061749 1.235924
0.336106 -0.091613 1.235924
0.392282 -0.121478 1.235924
0.336106 -0.069942 1.264771
0.392282 -0.099634 1.264771
0.336106 -0.048270 1.293618
0.392282 -0.077789 1.293618
0.279930 -0.018750 1.293618
0.279930 -0.040249 1.264771
0.223754 -0.010557 1.264771
0.223754 -0.031885 1.235924
0.448458 -0.129326 1.264771
0.448458 -0.107309 1.293618
0.504634 -0.159018 1.264771
0.504634 -0.181207 1.235924
0.448458 -0.151342 1.235924
0.504634 -0.136829 1.293618
0.223754 0.010770 1.293618
0.167578 0.040289 1.293618
0.167578 0.019135 1.264771
0.111402 0.069809 1.293618
0.111402 0.048827 1.264771
0.167578 -0.002020 1.235924
0.111402 0.027844 1.235924
0.167578 -0.023175 1.207078
0.111402 0.006862 1.207078
0.167578 -0.044330 1.178231
0.111402 -0.014120 1.178231
0.055226 0.057709 1.235924
0.055226 0.036899 1.207078
0.055226 0.016089 1.178231
0.055226 0.099329 1.293618
0.055226 0.078519 1.264771
0.167578 -0.065484 1.149385
0.111402 -0.035103 1.149385
0.167578 -0.086639 1.120538
0.111402 -0.056085 1.120538
0.167578 -0.107794 1.091692
0.111402 -0.077068 1.091692
0.167578 -0.128949 1.062845
0.111402 -0.098050 1.062845
0.055226 -0.025531 1.120538
0.055226 -0.046341 1.091692
0.055226 -0.067151 1.062845
0.055226 -0.004721 1.149385
0.897867 -0.231921 1.091691
0.954043 -0.223317 1.091691
0.954043 -0.226606 1.062845
0.897867 -0.237573 1.062845
0.897867 -0.226269 1.120538
0.954043 -0.220027 1.120538
0.897867 -0.220618 1.149384
0.954043 -0.216738 1.149384
0.897867 -0.214966 1.178231
0.954043 -0.213449 1.178231
0.897867 -0.209314 1.207078
0.954043 -0.210159 1.207078
0.897867 -0.203662 1.235924
0.954043 -0.206870 1.235924
0.897867 -0.198010 1.264771
0.954043 -0.203580 1.264771
0.897867 -0.192358 1.293617
0.954043 -0.200291 1.293617
-0.899767 -0.174383 0.860919
-0.843591 -0.173849 0.860919
-0.843591 -0.175924 0.832073
-0.899767 -0.175572 0.832073
-0.899767 -0.173194 0.889766
-0.843591 -0.171775 0.889766
-0.899767 -0.172004 0.918612
-0.843591 -0.169701 0.918612
-0.899767 -0.170815 0.947459
-0.843591 -0.167627 0.947459
-0.899767 -0.169626 0.976306
-0.843591 -0.165553 0.976306
-0.955943 -0.174004 0.947459
-0.955943 -0.174308 0.918612
-1.012119 -0.177192 0.947459
-1.012119 -0.177773 0.976306
-0.955943 -0.173700 0.976306
-1.012119 -0.176611 0.918612
-0.955943 -0.174612 0.889766
-1.012120 -0.176030 0.889766
-0.955943 -0.174916 0.860919
-1.012120 -0.175449 0.860919
-0.955943 -0.175220 0.832073
-1.012120 -0.174868 0.832073
-1.068296 -0.177449 0.889766
-1.068296 -0.175983 0.860919
-1.068296 -0.174517 0.832073
-1.124472 -0.176516 0.860919
-1.124472 -0.174165 0.832073
-1.068295 -0.180380 0.947459
-1.068295 -0.178915 0.918612
-1.124472 -0.181218 0.918612
-1.124472 -0.178867 0.889766
-1.124472 -0.183569 0.947459
-1.124472 -0.185920 0.976306
-1.068295 -0.181846 0.976306
-1.068295 -0.183312 1.005152
-1.012119 -0.178354 1.005152
-0.955943 -0.173395 1.005152
-1.012119 -0.178935 1.033999
-0.955943 -0.173091 1.033999
-1.012119 -0.179516 1.062845
-0.955943 -0.172787 1.062845
-1.068295 -0.186244 1.062845
-1.068295 -0.184778 1.033999
-1.124472 -0.190622 1.033999
-1.124472 -0.188271 1.005152
-0.899767 -0.167248 1.033999
-0.899767 -0.166058 1.062845
-0.843591 -0.161404 1.033999
-0.843591 -0.163478 1.005152
-0.899767 -0.168437 1.005152
-0.843591 -0.159330 1.062845
-1.124472 -0.192973 1.062845
-1.180648 -0.199702 1.062845
-1.180648 -0.196465 1.033999
-1.236824 -0.206430 1.062845
-1.236824 -0.202309 1.033999
-1.180648 -0.193229 1.005152
-1.236824 -0.198188 1.005152
-1.180648 -0.189993 0.976306
-1.236824 -0.194067 0.976306
-1.180648 -0.186757 0.947459
-1.236824 -0.189946 0.947459
-1.293000 -0.203146 1.005152
-1.293000 -0.198140 0.976306
-1.293000 -0.193134 0.947459
-1.293000 -0.213159 1.062845
-1.293000 -0.208153 1.033999
-1.180648 -0.183521 0.918613
-1.236824 -0.185825 0.918613
-1.180648 -0.180285 0.889766
-1.236824 -0.181704 0.889766
-1.180648 -0.177049 0.860919
-1.236824 -0.177582 0.860919
-1.180648 -0.173813 0.832073
-1.236824 -0.173461 0.832073
-1.293000 -0.183122 0.889766
-1.293000 -0.178116 0.860919
-1.293000 -0.173110 0.832073
-1.293000 -0.188128 0.918613
-0.450359 -0.130900 0.860919
-0.394183 -0.124764 0.860919
-0.394183 -0.159483 0.832072
-0.450359 -0.161538 0.832072
-0.450359 -0.100261 0.889766
-0.394183 -0.090044 0.889766
-0.450359 -0.069622 0.918612
-0.394183 -0.055325 0.918612
-0.450359 -0.038983 0.947459
-0.394183 -0.020605 0.947459
-0.450359 -0.008344 0.976305
-0.394183 0.014114 0.976305
-0.450359 0.022295 1.005152
-0.394183 0.048834 1.005152
-0.450359 0.052934 1.033999
-0.394183 0.083553 1.033999
-0.450359 0.083573 1.062845
-0.394183 0.118273 1.062845
-0.000950 -0.291514 0.860919
0.055226 -0.315335 0.860919
0.055226 -0.350790 0.832072
-0.000950 -0.326877 0.832072
-0.000950 -0.256151 0.889765
0.055226 -0.279880 0.889765
-0.000950 -0.220788 0.918612
0.055226 -0.244426 0.918612
-0.000950 -0.185425 0.947459
0.055226 -0.208971 0.947459
-0.000950 -0.150062 0.976305
0.055226 -0.173516 0.976305
-0.057126 -0.161879 0.947459
-0.057126 -0.197150 0.918612
-0.113302 -0.138334 0.947459
-0.113302 -0.103155 0.976305
-0.057126 -0.126608 0.976305
-0.113303 -0.173513 0.918612
-0.057126 -0.232421 0.889765
-0.113303 -0.208692 0.889765
-0.057126 -0.267692 0.860919
-0.113303 -0.243871 0.860919
-0.057126 -0.302964 0.832072
-0.113303 -0.279050 0.832072
-0.169479 -0.184962 0.889766
-0.169479 -0.220050 0.860919
-0.169479 -0.255137 0.832072
-0.225655 -0.196228 0.860919
-0.225655 -0.231224 0.832072
-0.169479 -0.114788 0.947459
-0.169479 -0.149875 0.918612
-0.225655 -0.126238 0.918612
-0.225655 -0.161233 0.889766
-0.225655 -0.091242 0.947459
-0.225655 -0.056247 0.976305
-0.169479 -0.079701 0.976305
-0.169479 -0.044614 1.005152
-0.113302 -0.067975 1.005152
-0.057126 -0.091337 1.005152
-0.113302 -0.032796 1.033998
-0.057126 -0.056066 1.033998
-0.113302 0.002383 1.062845
-0.057126 -0.020795 1.062845
-0.169478 0.025561 1.062845
-0.169479 -0.009526 1.033998
-0.225655 0.013744 1.033998
-0.225655 -0.021252 1.005152
-0.000950 -0.079336 1.033998
-0.000950 -0.043973 1.062845
0.055226 -0.102606 1.033998
0.055226 -0.138061 1.005152
-0.000950 -0.114699 1.005152
0.055226 -0.067151 1.062845
-0.225655 0.048739 1.062845
-0.281831 0.071917 1.062845
-0.281831 0.037013 1.033999
-0.338007 0.095095 1.062845
-0.338007 0.060283 1.033999
-0.281831 0.002110 1.005152
-0.338007 0.025472 1.005152
-0.281831 -0.032793 0.976305
-0.338007 -0.009340 0.976305
-0.281831 -0.067697 0.947459
-0.338007 -0.044151 0.947459
-0.394183 0.048834 1.005152
-0.394183 0.014114 0.976305
-0.394183 -0.020605 0.947459
-0.394183 0.118273 1.062845
-0.394183 0.083553 1.033999
-0.281831 -0.102600 0.918612
-0.338007 -0.078962 0.918612
-0.281831 -0.137503 0.889766
-0.338007 -0.113774 0.889766
-0.281831 -0.172407 0.860919
-0.338007 -0.148585 0.860919
-0.281831 -0.207310 0.832072
-0.338007 -0.183397 0.832072
-0.394183 -0.090044 0.889766
-0.394183 -0.124764 0.860919
-0.394183 -0.159483 0.832072
-0.394183 -0.055325 0.918612
0.448458 -0.192721 0.860919
0.504634 -0.175205 0.860919
0.504634 -0.155329 0.832072
0.448458 -0.179761 0.832072
0.897867 -0.090076 0.860919
0.954043 -0.077915 0.860919
0.954043 -0.056674 0.832072
0.897867 -0.069005 0.832072
0.897867 -0.111147 0.889765
0.954043 -0.099157 0.889765
0.897867 -0.132218 0.918612
0.954043 -0.120398 0.918612
0.897867 -0.153289 0.947458
0.954043 -0.141640 0.947458
0.897867 -0.174360 0.976305
0.954043 -0.162882 0.976305
0.841691 -0.164939 0.947458
0.841691 -0.144038 0.918612
0.785514 -0.176588 0.947458
0.785514 -0.197318 0.976305
0.841691 -0.185839 0.976305
0.785514 -0.155858 0.918612
0.841691 -0.123138 0.889765
0.785514 -0.135129 0.889765
0.841691 -0.102238 0.860919
0.785514 -0.114399 0.860919
0.841691 -0.081337 0.832072
0.785514 -0.093669 0.832072
0.729338 -0.147119 0.889765
0.729338 -0.126560 0.860919
0.729338 -0.106001 0.832072
0.673162 -0.138721 0.860919
0.673162 -0.118333 0.832072
0.729338 -0.188237 0.947458
0.729338 -0.167678 0.918612
0.673162 -0.179498 0.918612
0.673162 -0.159110 0.889765
0.673162 -0.199887 0.947458
0.673162 -0.220275 0.976305
0.729338 -0.208797 0.976305
0.729338 -0.229356 1.005152
0.785514 -0.218048 1.005151
0.841691 -0.206739 1.005151
0.785514 -0.238777 1.033998
0.841691 -0.227640 1.033998
0.785514 -0.259507 1.062845
0.841691 -0.248540 1.062845
0.729338 -0.270474 1.062845
0.729338 -0.249915 1.033998
0.673162 -0.261052 1.033998
0.673162 -0.240664 1.005152
0.897867 -0.216502 1.033998
0.897867 -0.237573 1.062845
0.954043 -0.205365 1.033998
0.954043 -0.184123 1.005151
0.897867 -0.195431 1.005151
0.954043 -0.226606 1.062845
0.673162 -0.281441 1.062845
0.616986 -0.292408 1.062845
0.616986 -0.272190 1.033998
0.560810 -0.303375 1.062845
0.560810 -0.283327 1.033998
0.616986 -0.251972 1.005152
0.560810 -0.263280 1.005152
0.616986 -0.231754 0.976305
0.560810 -0.243233 0.976305
0.616986 -0.211536 0.947458
0.560810 -0.223186 0.947458
0.504634 -0.274588 1.005152
0.504634 -0.254712 0.976305
0.504634 -0.234835 0.947458
0.504634 -0.314341 1.062845
0.504634 -0.294465 1.033998
0.616986 -0.191318 0.918612
0.560810 -0.203138 0.918612
0.616986 -0.171101 0.889765
0.560810 -0.183091 0.889765
0.616986 -0.150883 0.860919
0.560810 -0.163044 0.860919
0.616986 -0.130665 0.832072
0.560810 -0.142997 0.832072
0.504634 -0.195082 0.889765
0.504634 -0.175205 0.860919
0.504634 -0.155329 0.832072
0.504634 -0.214958 0.918612
-0.899767 -0.229521 0.630146
-0.843591 -0.226488 0.630146
-0.843591 -0.233711 0.601300
-0.899767 -0.237228 0.601300
-0.899767 -0.221814 0.658993
-0.843591 -0.219264 0.658993
-0.899767 -0.214107 0.687840
-0.843591 -0.212041 0.687840
-0.899767 -0.206400 0.716686
-0.843591 -0.204818 0.716686
-0.899767 -0.198693 0.745533
-0.843591 -0.197594 0.745533
-0.955943 -0.207982 0.716686
-0.955943 -0.216172 0.687840
-1.012120 -0.209564 0.716686
-1.012120 -0.200890 0.745533
-0.955943 -0.199792 0.745533
-1.012120 -0.218238 0.687840
-0.955943 -0.224363 0.658993
-1.012120 -0.226912 0.658993
-0.955943 -0.232553 0.630146
-1.012120 -0.235586 0.630146
-0.955943 -0.240744 0.601300
-1.012120 -0.244260 0.601300
-1.068296 -0.229461 0.658993
-1.068296 -0.238619 0.630146
-1.068296 -0.247776 0.601300
-1.124472 -0.241652 0.630146
-1.124472 -0.251293 0.601300
-1.068296 -0.211147 0.716686
-1.068296 -0.220304 0.687840
-1.124472 -0.222370 0.687840
-1.124472 -0.232011 0.658993
-1.124472 -0.212729 0.716686
-1.124472 -0.203088 0.745533
-1.068296 -0.201989 0.745533
-1.068296 -0.192832 0.774379
-1.012120 -0.192216 0.774379
-0.955943 -0.191601 0.774379
-1.012120 -0.183542 0.803226
-0.955943 -0.183411 0.803226
-1.012120 -0.174868 0.832073
-0.955943 -0.175220 0.832073
-1.068296 -0.174517 0.832073
-1.068296 -0.183674 0.803226
-1.124472 -0.183806 0.803226
-1.124472 -0.193447 0.774379
-0.899767 -0.183279 0.803226
-0.899767 -0.175572 0.832073
-0.843591 -0.183147 0.803226
-0.843591 -0.190371 0.774379
-0.899767 -0.190986 0.774379
-0.843591 -0.175924 0.832073
-1.124472 -0.174165 0.832073
-1.180648 -0.173813 0.832073
-1.180648 -0.183938 0.803226
-1.236824 -0.173461 0.832073
-1.236824 -0.184069 0.803226
-1.180648 -0.194062 0.774379
-1.236824 -0.194677 0.774379
-1.180648 -0.204187 0.745533
-1.236824 -0.205285 0.745533
-1.180648 -0.214311 0.716686
-1.236824 -0.215893 0.716686
-1.293000 -0.195293 0.774379
-1.293000 -0.206384 0.745533
-1.293000 -0.217476 0.716686
-1.293000 -0.173110 0.832073
-1.293000 -0.184201 0.803226
-1.180648 -0.224435 0.687840
-1.236824 -0.226501 0.687840
-1.180648 -0.234560 0.658993
-1.236824 -0.237109 0.658993
-1.180648 -0.244684 0.630146
-1.236824 -0.247717 0.630146
-1.180648 -0.254809 0.601300
-1.236824 -0.258325 0.601300
-1.293000 -0.239658 0.658993
-1.293000 -0.250750 0.630146
-1.293000 -0.261841 0.601300
-1.293000 -0.228567 0.687840
-0.450359 -0.059940 0.630146
-0.394183 -0.036148 0.630146
-0.394183 -0.018528 0.601300
-0.450359 -0.045426 0.601300
-0.450359 -0.074454 0.658993
-0.394183 -0.053767 0.658993
-0.450359 -0.088968 0.687839
-0.394183 -0.071386 0.687839
-0.450359 -0.103482 0.716686
-0.394183 -0.089006 0.716686
-0.450359 -0.117996 0.745533
-0.394183 -0.106625 0.745533
-0.450359 -0.132510 0.774379
-0.394183 -0.124245 0.774379
-0.450359 -0.147024 0.803226
-0.394183 -0.141864 0.803226
-0.450359 -0.161538 0.832072
-0.394183 -0.159483 0.832072
-0.000950 -0.009993 0.630146
0.055226 -0.006257 0.630146
0.055226 0.042962 0.601299
-0.000951 0.035276 0.601299
-0.000950 -0.055262 0.658993
0.055226 -0.055476 0.658993
-0.000950 -0.100531 0.687839
0.055226 -0.104695 0.687839
-0.000950 -0.145801 0.716686
0.055226 -0.153914 0.716686
-0.000950 -0.191070 0.745533
0.055226 -0.203133 0.745533
-0.000950 -0.236339 0.774379
0.055226 -0.252352 0.774379
-0.000950 -0.281608 0.803226
0.055226 -0.301571 0.803226
-0.000950 -0.326877 0.832072
0.055226 -0.350790 0.832072
-0.057127 -0.096368 0.687839
-0.000950 -0.100531 0.687839
-0.057127 -0.137687 0.716686
-0.000950 -0.145801 0.716686
-0.057127 -0.179006 0.745533
-0.000950 -0.191070 0.745533
-0.057127 -0.220325 0.774379
-0.057127 -0.055049 0.658993
-0.113303 -0.092204 0.687839
-0.057127 -0.096368 0.687839
-0.113303 -0.054835 0.658993
-0.057127 -0.013730 0.630146
-0.113303 -0.017466 0.630146
-0.057127 0.027589 0.601299
-0.113303 0.019903 0.601299
-0.113303 -0.129573 0.716686
-0.057127 -0.137687 0.716686
-0.113303 -0.166943 0.745533
-0.057127 -0.179006 0.745533
-0.113303 -0.204312 0.774379
-0.057127 -0.220325 0.774379
-0.113303 -0.241681 0.803226
-0.057127 -0.261644 0.803226
-0.113303 -0.279050 0.832072
-0.057126 -0.302964 0.832072
-0.000950 -0.281608 0.803226
-0.057127 -0.261644 0.803226
-0.057127 -0.013730 0.630146
-0.000950 -0.009993 0.630146
-0.057127 -0.055049 0.658993
-0.000950 -0.055262 0.658993
0.448458 -0.223249 0.630146
0.504634 -0.254248 0.630146
0.504634 -0.268379 0.601299
0.448458 -0.229462 0.601299
0.897866 -0.180240 0.630146
0.954042 -0.169668 0.630146
0.954042 -0.185810 0.601299
0.897866 -0.196131 0.601299
0.897866 -0.164349 0.658992
0.954042 -0.153526 0.658992
0.897866 -0.148459 0.687839
0.954042 -0.137384 0.687839
0.897866 -0.132568 0.716686
0.954043 -0.121242 0.716686
0.897867 -0.116677 0.745532
0.954043 -0.105100 0.745532
0.841690 -0.143895 0.716686
0.841690 -0.159534 0.687839
0.785514 -0.155221 0.716686
0.785514 -0.139833 0.745532
0.841691 -0.128255 0.745532
0.785514 -0.170609 0.687839
0.841690 -0.175173 0.658992
0.785514 -0.185997 0.658992
0.841690 -0.190813 0.630146
0.785514 -0.201385 0.630146
0.841690 -0.206452 0.601299
0.785514 -0.216773 0.601299
0.729338 -0.196821 0.658992
0.729338 -0.211958 0.630146
0.729338 -0.227094 0.601299
0.673162 -0.222530 0.630146
0.673162 -0.237416 0.601299
0.729338 -0.166548 0.716686
0.729338 -0.181684 0.687839
0.673162 -0.192760 0.687839
0.673162 -0.207645 0.658992
0.673162 -0.177874 0.716686
0.673162 -0.162989 0.745532
0.729338 -0.151411 0.745532
0.729338 -0.136274 0.774379
0.785514 -0.124445 0.774379
0.841691 -0.112616 0.774379
0.785514 -0.109057 0.803225
0.841691 -0.096977 0.803225
0.785514 -0.093669 0.832072
0.841691 -0.081337 0.832072
0.729338 -0.106001 0.832072
0.729338 -0.121138 0.803225
0.673162 -0.133218 0.803225
0.673162 -0.148104 0.774379
0.897867 -0.084896 0.803225
0.897867 -0.069005 0.832072
0.954043 -0.072816 0.803225
0.954043 -0.088958 0.774379
0.897867 -0.100787 0.774379
0.954043 -0.056674 0.832072
0.673162 -0.118333 0.832072
0.616986 -0.130665 0.832072
0.616986 -0.145299 0.803226
0.560810 -0.142997 0.832072
0.560810 -0.157380 0.803226
0.616986 -0.159933 0.774379
0.560810 -0.171762 0.774379
0.616986 -0.174567 0.745532
0.560810 -0.186145 0.745532
0.616986 -0.189201 0.716686
0.560810 -0.200527 0.716686
0.504634 -0.183591 0.774379
0.504634 -0.197723 0.745532
0.504634 -0.211854 0.716686
0.504634 -0.155329 0.832072
0.504634 -0.169460 0.803226
0.616986 -0.203835 0.687839
0.560810 -0.214910 0.687839
0.616986 -0.218469 0.658992
0.560810 -0.229293 0.658992
0.616986 -0.233103 0.630146
0.560810 -0.243675 0.630146
0.616986 -0.247737 0.601299
0.560810 -0.258058 0.601299
0.504634 -0.240117 0.658992
0.504634 -0.254248 0.630146
0.504634 -0.268379 0.601299
0.504634 -0.225985 0.687839
-0.899768 -0.296626 0.399374
-0.843592 -0.316945 0.399374
-0.843592 -0.328836 0.370527
-0.899768 -0.305112 0.370527
-0.450359 -0.002667 0.399373
-0.394183 0.042230 0.399373
-0.394183 0.050910 0.370527
-0.450359 0.003441 0.370527
-0.450359 -0.008775 0.428220
-0.394183 0.033550 0.428220
-0.450359 -0.014884 0.457067
-0.394183 0.024870 0.457067
-0.450359 -0.020992 0.485913
-0.394183 0.016191 0.485913
-0.450359 -0.027101 0.514760
-0.394183 0.007511 0.514760
-0.450359 -0.033209 0.543606
-0.394183 -0.001169 0.543606
-0.450359 -0.039318 0.572453
-0.394183 -0.009848 0.572453
-0.450359 -0.045426 0.601300
-0.394183 -0.018528 0.601300
-0.000951 0.004796 0.399373
0.055225 -0.000552 0.399373
0.055225 -0.006768 0.370526
-0.000951 0.000442 0.370526
-0.000951 0.009150 0.428220
0.055225 0.005664 0.428220
-0.000951 0.013504 0.457066
0.055225 0.011881 0.457066
-0.000951 0.017859 0.485913
0.055225 0.018097 0.485913
-0.000951 0.022213 0.514760
0.055225 0.024313 0.514760
-0.000951 0.026567 0.543606
0.055226 0.030529 0.543606
-0.000951 0.030921 0.572453
0.055226 0.036746 0.572453
-0.000951 0.035276 0.601299
0.055226 0.042962 0.601299
0.448458 0.007392 0.399373
0.504634 0.008527 0.399373
0.504634 0.048085 0.370526
0.448458 0.041228 0.370526
0.897866 -0.141650 0.399373
0.954042 -0.163104 0.399373
0.954042 -0.159860 0.370526
0.897866 -0.133867 0.370526
0.897866 -0.172782 0.514759
0.954042 -0.176079 0.514759
0.954042 -0.172835 0.485913
0.897866 -0.164999 0.485913
1.010218 -0.178216 0.485913
1.010218 -0.184493 0.514759
1.010218 -0.178216 0.485913
1.010218 -0.171939 0.457066
0.954042 -0.169591 0.457066
0.673162 -0.159595 0.514759
0.729338 -0.162892 0.514759
0.729338 -0.141491 0.485913
0.673162 -0.133655 0.485913
0.673162 -0.055835 0.399373
0.729338 -0.077289 0.399373
0.729338 -0.055888 0.370526
0.673162 -0.029895 0.370526
0.448458 -0.127953 0.514760
0.504634 -0.149705 0.514760
0.504634 -0.110147 0.485913
0.448458 -0.094117 0.485913
0.223754 -0.040944 0.514760
0.279930 -0.062696 0.514760
0.279930 -0.046025 0.485913
0.223754 -0.029995 0.485913
0.223754 0.002853 0.399373
0.279930 0.003988 0.399373
0.279930 0.020658 0.370526
0.223753 0.013802 0.370526
-0.225655 0.013812 0.514760
-0.169479 0.015912 0.514760
-0.169479 0.017144 0.485913
-0.225655 0.016906 0.485913
-0.169479 0.018376 0.457066
-0.225655 0.019999 0.457066
-0.169479 0.019607 0.428220
-0.225655 0.023093 0.428220
-0.169479 0.020839 0.399373
-0.225655 0.026187 0.399373
-0.169479 0.022071 0.370526
-0.225655 0.029280 0.370526
-0.225655 0.010718 0.543606
-0.169479 0.014680 0.543606
-0.225655 0.007624 0.572453
-0.169479 0.013449 0.572453
-0.225655 0.004531 0.601299
-0.169479 0.012217 0.601299
-0.675063 -0.165548 0.514760
-0.618887 -0.130936 0.514760
-0.618887 -0.132541 0.485913
-0.675063 -0.169724 0.485913
-0.618887 -0.134147 0.457067
-0.675063 -0.173901 0.457067
-0.618887 -0.135752 0.428220
-0.675063 -0.178078 0.428220
-0.618887 -0.137358 0.399374
-0.675063 -0.182255 0.399374
-0.618887 -0.138963 0.370527
-0.675063 -0.186431 0.370527
-0.675063 -0.161371 0.543607
-0.618887 -0.129331 0.543607
-0.675063 -0.157194 0.572453
-0.618887 -0.127725 0.572453
-0.675063 -0.153018 0.601300
-0.618887 -0.126120 0.601300
-0.899768 -0.262684 0.514760
-0.843591 -0.269383 0.514760
-0.843591 -0.281274 0.485913
-0.899768 -0.271170 0.485913
-1.124472 -0.235889 0.514760
-1.068296 -0.242588 0.514760
-1.068296 -0.240858 0.485913
-1.124472 -0.230754 0.485913
-1.124472 -0.215350 0.399374
-1.068296 -0.235669 0.399374
-1.068296 -0.233940 0.370527
-1.124472 -0.210216 0.370527
0.448458 -0.198399 0.745532
0.504634 -0.197723 0.745532
0.504634 -0.211854 0.716686
0.448458 -0.204612 0.716686
0.223754 -0.201104 0.745532
0.279930 -0.200428 0.745532
0.279930 -0.182884 0.716686
0.223754 -0.175642 0.716686
0.223754 -0.099254 0.630146
0.279930 -0.130253 0.630146
0.279930 -0.112709 0.601299
0.223754 -0.073791 0.601299
0.336106 -0.151626 0.601299
0.336106 -0.129234 0.572453
0.279930 -0.096038 0.572453
-0.225655 -0.142816 0.745533
-0.169479 -0.154879 0.745533
-0.169479 -0.121460 0.716686
-0.225655 -0.113346 0.716686
-0.169479 -0.088041 0.687839
-0.225655 -0.083877 0.687839
-0.169479 -0.054622 0.658993
-0.225655 -0.054408 0.658993
-0.169479 -0.021202 0.630146
-0.225655 -0.024939 0.630146
-0.169479 0.012217 0.601299
-0.225655 0.004531 0.601299
-0.225655 -0.172285 0.774379
-0.169479 -0.188298 0.774379
-0.225655 -0.201754 0.803226
-0.169479 -0.221718 0.803226
-0.225655 -0.231224 0.832072
-0.169479 -0.255137 0.832072
-0.675063 -0.163481 0.745533
-0.618887 -0.152110 0.745533
-0.618887 -0.146912 0.716686
-0.675063 -0.161388 0.716686
-0.675063 -0.155110 0.630146
-0.618887 -0.131318 0.630146
-0.618887 -0.126120 0.601300
-0.675063 -0.153018 0.601300
-0.675063 -0.157203 0.658993
-0.618887 -0.136516 0.658993
0.448458 -0.244562 0.976305
0.504634 -0.254712 0.976305
0.504634 -0.234835 0.947458
0.448458 -0.231602 0.947458
0.223754 -0.203964 0.976305
0.279930 -0.214114 0.976305
0.279930 -0.221903 0.947459
0.223754 -0.218670 0.947459
0.223754 -0.262787 0.860919
0.279930 -0.245270 0.860919
0.279930 -0.253059 0.832072
0.223754 -0.277492 0.832072
-0.675063 -0.098177 0.976306
-0.618887 -0.075719 0.976306
-0.618887 -0.094116 0.947459
-0.675063 -0.112494 0.947459
-0.675063 -0.155442 0.860919
-0.618887 -0.149307 0.860919
-0.618887 -0.167704 0.832072
-0.675063 -0.169759 0.832072
0.673163 -0.205932 1.207078
0.729339 -0.206778 1.207078
0.729339 -0.219517 1.178231
0.673163 -0.221034 1.178231
0.729339 -0.232256 1.149385
0.673163 -0.236136 1.149385
0.729339 -0.244995 1.120538
0.673162 -0.251237 1.120538
0.729338 -0.257735 1.091691
0.673162 -0.266339 1.091691
0.729338 -0.270474 1.062845
0.673162 -0.281441 1.062845
0.673163 -0.190830 1.235924
0.729339 -0.194038 1.235924
0.673163 -0.175729 1.264771
0.729339 -0.181299 1.264771
0.673163 -0.160627 1.293617
0.729339 -0.168560 1.293617
0.729339 -0.157577 1.322464
0.785515 -0.176493 1.293617
0.785515 -0.160614 1.322464
-0.000950 0.036707 1.207078
0.055226 0.036899 1.207078
0.055226 0.016089 1.178231
-0.000950 0.020571 1.178231
-0.225654 0.035940 1.207078
-0.169478 0.036132 1.207078
-0.169478 0.034018 1.178231
-0.225654 0.038500 1.178231
-0.225655 0.046179 1.091692
-0.169478 0.027675 1.091692
-0.169478 0.025561 1.062845
-0.225655 0.048739 1.062845
-0.899767 -0.259246 1.207078
-0.843591 -0.275998 1.207078
-0.843591 -0.252664 1.178232
-0.899767 -0.240608 1.178232
-1.124471 -0.192237 1.207078
-1.068295 -0.208989 1.207078
-1.068295 -0.204440 1.178232
-1.124472 -0.192384 1.178232
-1.124472 -0.192826 1.091692
-1.068295 -0.190793 1.091692
-1.068295 -0.186244 1.062845
0.897867 -0.064005 1.437850
0.954043 -0.047458 1.437850
0.954043 -0.078025 1.409004
0.897867 -0.089676 1.409004
0.673163 -0.130193 1.437851
0.729339 -0.113646 1.437851
0.729339 -0.124629 1.409004
0.673163 -0.136280 1.409004
0.673163 -0.154540 1.322464
0.729339 -0.157577 1.322464
0.729339 -0.168560 1.293617
0.673163 -0.160627 1.293617
0.448458 -0.173592 1.437851
0.504634 -0.179834 1.437851
0.504634 -0.171233 1.409004
0.448458 -0.160335 1.409004
0.223754 -0.148624 1.437851
0.279930 -0.154866 1.437851
0.279930 -0.127643 1.409004
0.223754 -0.116745 1.409004
0.223754 -0.021109 1.322464
0.279930 -0.045973 1.322464
0.279930 -0.018750 1.293618
0.223754 0.010770 1.293618
-0.225654 -0.120875 1.437851
-0.169478 -0.122680 1.437851
-0.169478 -0.089649 1.409004
-0.225654 -0.091048 1.409004
-0.169478 -0.056618 1.380158
-0.225654 -0.061221 1.380158
-0.169478 -0.023587 1.351311
-0.225654 -0.031393 1.351311
-0.169478 0.009444 1.322464
-0.225654 -0.001566 1.322464
-0.169478 0.042475 1.293618
-0.225654 0.028261 1.293618
-0.225654 -0.150703 1.466697
-0.169478 -0.155711 1.466697
-0.225654 -0.180530 1.495544
-0.169478 -0.188742 1.495544
-0.225654 -0.210357 1.524391
-0.169478 -0.221773 1.524391
-0.450359 -0.128960 1.437851
-0.394183 -0.115462 1.437851
-0.394183 -0.095245 1.409004
-0.450359 -0.114335 1.409004
-0.675063 -0.182954 1.437851
-0.618887 -0.169456 1.437851
-0.618887 -0.171602 1.409004
-0.675063 -0.190692 1.409005
-0.675063 -0.213904 1.322465
-0.618887 -0.178043 1.322465
-0.618887 -0.180189 1.293618
-0.675063 -0.221642 1.293618
-0.899767 -0.223075 1.437851
-0.843591 -0.223450 1.437851
-0.843591 -0.247960 1.409005
-0.899767 -0.241492 1.409005
-1.124471 -0.221578 1.437851
-1.068295 -0.221953 1.437851
-1.068295 -0.222089 1.409005
-1.124471 -0.215622 1.409005
-1.124471 -0.197752 1.322465
-1.068295 -0.222500 1.322465
-1.068295 -0.222636 1.293618
-1.124471 -0.191796 1.293618
-1.068295 -0.218087 1.264772
-1.124471 -0.191943 1.264772
0.448459 -0.241988 1.668623
0.504635 -0.269889 1.668623
0.504635 -0.257038 1.639777
0.448459 -0.236263 1.639777
0.223754 -0.130387 1.668623
0.279930 -0.158287 1.668623
0.279930 -0.173937 1.639777
0.223754 -0.153162 1.639777
0.223754 -0.221486 1.553237
0.279930 -0.220886 1.553237
0.279930 -0.236535 1.524390
0.223754 -0.244260 1.524390
-0.000950 -0.065268 1.668624
0.055226 -0.046686 1.668623
0.055226 -0.090835 1.639777
-0.000950 -0.103418 1.639777
-0.225654 -0.139597 1.668624
-0.169478 -0.121014 1.668624
-0.169478 -0.141166 1.639777
-0.225654 -0.153749 1.639777
-0.225654 -0.196205 1.553237
-0.169478 -0.201621 1.553237
-0.169478 -0.221773 1.524391
-0.225654 -0.210357 1.524391
-1.124471 -0.276707 1.668624
-1.068295 -0.266354 1.668624
-1.068295 -0.257392 1.639778
-1.124471 -0.269255 1.639778
-1.068295 -0.257392 1.639778
-1.068295 -0.248429 1.610931
-1.012119 -0.235056 1.610931
-1.012119 -0.245528 1.639777
-1.012119 -0.224583 1.582084
-1.068295 -0.239467 1.582084
-1.012119 -0.214110 1.553238
-1.068295 -0.230505 1.553238
-1.012119 -0.203637 1.524391
-1.068295 -0.221542 1.524391
-1.068295 -0.266354 1.668624
-1.012119 -0.256001 1.668624
-1.068295 -0.275316 1.697471
-1.012119 -0.266474 1.697471
-1.068295 -0.284279 1.726317
-1.012119 -0.276947 1.726317
-1.068295 -0.293241 1.755164
-1.012119 -0.287420 1.755164
-1.124471 -0.299062 1.755164
-1.124471 -0.291610 1.726317
-1.124471 -0.254351 1.582084
-1.124471 -0.246899 1.553238
-1.068295 -0.230505 1.553238
-1.124471 -0.239448 1.524391
-1.124471 -0.284158 1.697471
-1.068295 -0.275316 1.697471
-1.068295 -0.284279 1.726317
-1.124471 -0.261803 1.610931
-1.068295 -0.239467 1.582084
-1.068295 -0.248429 1.610931
-1.180647 -0.257353 1.524391
-1.124471 -0.233491 1.495545
-1.180647 -0.245304 1.495545
-0.955943 -0.281600 1.755164
-0.955943 -0.269616 1.726317
-1.012119 -0.276947 1.726317
-0.955943 -0.257632 1.697471
-1.012119 -0.266474 1.697471
-0.955943 -0.245649 1.668624
-1.012119 -0.256001 1.668624
-0.955943 -0.233665 1.639777
-1.012119 -0.245528 1.639777
-0.955943 -0.221682 1.610931
-1.012119 -0.235056 1.610931
-1.012119 -0.224583 1.582084
-0.955943 -0.197715 1.553238
-1.012119 -0.214110 1.553238
-0.955943 -0.185731 1.524391
-0.899767 -0.194814 1.582084
-0.955943 -0.197715 1.553238
1.122571 -0.183560 0.745532
1.178747 -0.209714 0.745532
1.178747 -0.218945 0.716685
1.122571 -0.194519 0.716685
1.178747 -0.228176 0.687839
1.122571 -0.205478 0.687839
1.178747 -0.237408 0.658992
1.122571 -0.216437 0.658992
1.178747 -0.246639 0.630146
1.122571 -0.227396 0.630146
1.178747 -0.255870 0.601299
1.122571 -0.238355 0.601299
1.122571 -0.172601 0.774379
1.178747 -0.200482 0.774379
1.122571 -0.161642 0.803225
1.178747 -0.191251 0.803225
1.122571 -0.150683 0.832072
1.178747 -0.182019 0.832072
1.066395 -0.119347 0.832072
1.122571 -0.161642 0.803225
1.066395 -0.132033 0.803225
1.066395 -0.144720 0.774379
1.010219 -0.102424 0.803225
1.066395 -0.132033 0.803225
1.010219 -0.116839 0.774379
1.066395 -0.157407 0.745532
1.010219 -0.131253 0.745532
1.066395 -0.170093 0.716685
1.010219 -0.145667 0.716685
0.954043 -0.105100 0.745532
0.954043 -0.088958 0.774379
1.010219 -0.116839 0.774379
0.954043 -0.121242 0.716686
1.010219 -0.088010 0.832072
0.954043 -0.056674 0.832072
0.954043 -0.072816 0.803225
1.066395 -0.182780 0.687839
1.010218 -0.160082 0.687839
1.066395 -0.195467 0.658992
1.010218 -0.174496 0.658992
1.066395 -0.208153 0.630146
1.010218 -0.188910 0.630146
1.066395 -0.220840 0.601299
1.010218 -0.203325 0.601299
0.954042 -0.169668 0.630146
1.010218 -0.188910 0.630146
0.954042 -0.153526 0.658992
1.010218 -0.174496 0.658992
0.954042 -0.185810 0.601299
0.954042 -0.137384 0.687839
1.010218 -0.160082 0.687839
1.010219 -0.145667 0.716685
1.066395 -0.182780 0.687839
1.122571 -0.216437 0.658992
1.122571 -0.205478 0.687839
1.066395 -0.170093 0.716685
1.122571 -0.194519 0.716685
1.066395 -0.157407 0.745532
1.122571 -0.183560 0.745532
1.066395 -0.144720 0.774379
1.122571 -0.172601 0.774379
1.066395 -0.195467 0.658992
1.122571 -0.227396 0.630146
1.066395 -0.208153 0.630146
1.122571 -0.238355 0.601299
1.066395 -0.220840 0.601299
1.347275 -0.094126 0.976305
1.403451 -0.084304 0.976305
1.403451 -0.128916 0.947458
1.347275 -0.130507 0.947458
1.122571 -0.133415 0.976305
1.178747 -0.123593 0.976305
1.178747 -0.135278 0.947458
1.122571 -0.136868 0.947458
1.122571 -0.147229 0.860918
1.178747 -0.170334 0.860918
1.178747 -0.182019 0.832072
1.122571 -0.150683 0.832072
1.234923 -0.213356 0.832072
1.234923 -0.220860 0.803225
1.178747 -0.191251 0.803225
1.234923 -0.228363 0.774379
1.178747 -0.200482 0.774379
1.234923 -0.235867 0.745532
1.178747 -0.209714 0.745532
1.234923 -0.243371 0.716685
1.178747 -0.218945 0.716685
1.234923 -0.250874 0.687839
1.178747 -0.228176 0.687839
1.234923 -0.258378 0.658992
1.178747 -0.237408 0.658992
1.234923 -0.265882 0.630146
1.178747 -0.246639 0.630146
1.234923 -0.273386 0.601299
1.178747 -0.255870 0.601299
1.347275 -0.111210 1.437850
1.403451 -0.120317 1.437850
1.403451 -0.072235 1.409004
1.347275 -0.072959 1.409004
1.122571 -0.074781 1.437850
1.178747 -0.083888 1.437850
1.178747 -0.075130 1.409004
1.122571 -0.075854 1.409004
1.122571 -0.079074 1.322464
1.178747 -0.048857 1.322464
1.178747 -0.040099 1.293617
1.122571 -0.080147 1.293617
1.347276 -0.201678 1.668623
1.403452 -0.219329 1.668623
1.403452 -0.228376 1.639776
1.347276 -0.206535 1.639776
1.122571 -0.131076 1.668623
1.178747 -0.148726 1.668623
1.178747 -0.141013 1.639776
1.122571 -0.119173 1.639776
1.122571 -0.083464 1.553237
1.178747 -0.117874 1.553237
1.178747 -0.110161 1.524390
1.122571 -0.071561 1.524390
1.122571 -0.201323 0.514759
1.178747 -0.209738 0.514759
1.178747 -0.194360 0.485913
1.122570 -0.188979 0.485913
1.122571 -0.213667 0.543606
1.178747 -0.225115 0.543606
1.122571 -0.226011 0.572453
1.178747 -0.240493 0.572453
1.122571 -0.238355 0.601299
1.178747 -0.255870 0.601299
1.122570 -0.151947 0.399373
1.178746 -0.148227 0.399373
1.178746 -0.132850 0.370526
1.122570 -0.139603 0.370526
1.122570 -0.176635 0.457066
1.178746 -0.178983 0.457066
1.178746 -0.163605 0.428220
1.122570 -0.164291 0.428220
1.010218 -0.171939 0.457066
1.066394 -0.174287 0.457066
1.066394 -0.164976 0.428220
1.010218 -0.165662 0.428220
1.010218 -0.159385 0.399373
1.066394 -0.155666 0.399373
1.066394 -0.146355 0.370526
1.010218 -0.153108 0.370526
1.010218 -0.197048 0.572453
1.066395 -0.211529 0.572453
1.066395 -0.202219 0.543606
1.010218 -0.190771 0.543606
1.010218 -0.184493 0.514759
1.066395 -0.192908 0.514759
1.066394 -0.183598 0.485913
1.010218 -0.178216 0.485913
1.234923 -0.254974 0.572453
1.291099 -0.269456 0.572453
1.291099 -0.248012 0.543606
1.234923 -0.236563 0.543606
1.291099 -0.226567 0.514759
1.234923 -0.218152 0.514759
1.291099 -0.205123 0.485913
1.234923 -0.199741 0.485913
1.291099 -0.183678 0.457066
1.234923 -0.181330 0.457066
1.291099 -0.162234 0.428220
1.234923 -0.162919 0.428220
1.291099 -0.140789 0.399373
1.234923 -0.144508 0.399373
1.291099 -0.119345 0.370526
1.234923 -0.126097 0.370526
1.234923 -0.273386 0.601299
1.291099 -0.290901 0.601299
1.122571 -0.107270 1.610930
1.178747 -0.133300 1.610930
1.178747 -0.125587 1.582083
1.122571 -0.095367 1.582083
1.010219 -0.055208 1.610930
1.066395 -0.081239 1.610930
1.066395 -0.065146 1.582083
1.010219 -0.034925 1.582083
1.010219 -0.014642 1.553237
1.066395 -0.049053 1.553237
1.066395 -0.032960 1.524390
1.010219 0.005641 1.524390
1.122571 -0.154882 1.726316
1.178747 -0.164152 1.726316
1.178747 -0.156439 1.697470
1.122571 -0.142979 1.697470
1.010219 -0.136340 1.726316
1.066395 -0.145611 1.726316
1.066395 -0.129518 1.697470
1.010219 -0.116057 1.697470
1.010219 -0.095774 1.668623
1.066395 -0.113425 1.668623
1.066395 -0.097332 1.639776
1.010219 -0.075491 1.639776
1.347276 -0.191964 1.726316
1.403452 -0.201235 1.726316
1.403452 -0.210282 1.697469
1.347276 -0.196821 1.697469
1.234923 -0.173423 1.726316
1.291100 -0.182693 1.726316
1.291100 -0.183360 1.697469
1.234923 -0.169900 1.697469
1.234923 -0.166377 1.668623
1.291100 -0.184027 1.668623
1.291100 -0.184694 1.639776
1.234923 -0.162854 1.639776
1.122571 -0.076927 1.380157
1.178747 -0.066372 1.380157
1.178747 -0.057615 1.351310
1.122571 -0.078000 1.351310
1.010219 -0.098037 1.380157
1.066395 -0.087482 1.380157
1.066395 -0.098386 1.351311
1.010219 -0.118772 1.351311
