# .PCD v.7 - Point Cloud Data file format
VERSION .7
FIELDS x y z
SIZE 4 4 4
TYPE F F F
COUNT 1 1 1
WIDTH 1741
HEIGHT 1
POINTS 1741
DATA ascii
-0.894768 0.508210 1.702470
-0.950944 0.499368 1.702470
-0.950944 0.511351 1.673624
-0.838591 0.517052 1.702470
-1.007120 0.511472 1.644777
-0.950944 0.523335 1.644777
-0.950944 0.511351 1.673624
-0.894768 0.494715 1.731317
-0.894768 0.508210 1.702470
-0.838591 0.502047 1.731317
-0.782415 0.522146 1.702470
-0.782415 0.508536 1.731317
-0.726239 0.527241 1.702470
-0.726239 0.515026 1.731317
-0.670063 0.532336 1.702470
-0.670063 0.521516 1.731317
-0.613887 0.537431 1.702470
-0.613887 0.528006 1.731317
-0.726239 0.502811 1.760164
-0.670063 0.510696 1.760164
-0.613887 0.518580 1.760164
-0.838591 0.487042 1.760164
-0.782415 0.494927 1.760164
-0.726239 0.539457 1.673624
-0.782415 0.535756 1.673624
-0.726239 0.551672 1.644777
-0.782415 0.549366 1.644777
-0.726239 0.563887 1.615931
-0.670063 0.564797 1.615931
-0.670063 0.553977 1.644777
-0.613887 0.565708 1.615931
-0.613887 0.556282 1.644777
-0.557711 0.566618 1.615931
-0.557711 0.558587 1.644777
-0.501535 0.567529 1.615931
-0.501535 0.560893 1.644777
-0.445359 0.568439 1.615931
-0.445359 0.563198 1.644777
-0.389183 0.569350 1.615931
-0.389183 0.565503 1.644777
-0.782415 0.562976 1.615931
-0.726239 0.576102 1.587084
-0.782416 0.576586 1.587084
-0.670063 0.575618 1.587084
-0.838592 0.562066 1.615931
-0.838592 0.577070 1.587084
-0.838592 0.547061 1.644777
-0.782416 0.590196 1.558237
-0.838592 0.592075 1.558237
-0.782416 0.603806 1.529391
-0.726239 0.600532 1.529391
-0.726239 0.588317 1.558237
-0.838592 0.607080 1.529391
-0.838591 0.532056 1.673624
-0.838591 0.517052 1.702470
-0.670063 0.597258 1.529391
-0.670063 0.586438 1.558237
-0.613887 0.593984 1.529391
-0.613887 0.584559 1.558237
-0.557711 0.590711 1.529391
-0.557711 0.582680 1.558237
-0.501535 0.587437 1.529391
-0.501535 0.580801 1.558237
-0.557711 0.574649 1.587084
-0.557711 0.582680 1.558237
-0.613887 0.575133 1.587084
-0.613887 0.584559 1.558237
-0.501535 0.574165 1.587084
-0.670063 0.575618 1.587084
-0.670063 0.586438 1.558237
-0.557711 0.566618 1.615931
-0.557711 0.574649 1.587084
-0.501535 0.567529 1.615931
-0.445359 0.573680 1.587084
-0.445359 0.568439 1.615931
-0.389183 0.573196 1.587084
-0.613887 0.565708 1.615931
-0.613887 0.575133 1.587084
-0.670063 0.564797 1.615931
-0.445359 0.573680 1.587084
-0.389183 0.577042 1.558237
-0.445359 0.578921 1.558237
-0.501535 0.574165 1.587084
-0.501535 0.580801 1.558237
-0.445359 0.578921 1.558237
-0.389183 0.580889 1.529391
-0.445359 0.584163 1.529391
-0.501535 0.587437 1.529391
-0.557711 0.590711 1.529391
-0.501535 0.596471 1.500544
-0.557711 0.594155 1.500544
-0.894768 0.460258 1.327465
-0.894768 0.441842 1.298618
-0.838592 0.411001 1.298618
-0.838592 0.435511 1.327465
-0.894768 0.572304 1.096692
-0.894768 0.590942 1.067845
-0.838592 0.597670 1.067845
-0.838592 0.574337 1.096692
-0.894768 0.582617 0.865919
-0.894768 0.581428 0.837073
-0.838592 0.581076 0.837073
-0.838592 0.583151 0.865919
-0.950944 0.582084 0.865919
-0.950944 0.581780 0.837073
-1.007120 0.581551 0.865919
-1.007120 0.582132 0.837073
-1.063296 0.581017 0.865919
-1.063296 0.582483 0.837073
-1.119472 0.580484 0.865919
-1.119472 0.582835 0.837073
-1.063296 0.579551 0.894766
-1.007120 0.580970 0.894766
-1.063296 0.578085 0.923613
-1.119472 0.575782 0.923613
-1.119472 0.578133 0.894766
-1.007120 0.580389 0.923613
-0.950944 0.582388 0.894766
-0.950944 0.582692 0.923613
-0.894768 0.583806 0.894766
-0.894768 0.584996 0.923613
-0.838592 0.585225 0.894766
-0.838592 0.587299 0.923613
-0.950944 0.582996 0.952459
-0.894768 0.586185 0.952459
-0.838592 0.589373 0.952459
-0.894768 0.587374 0.981306
-0.838592 0.591447 0.981306
-1.063296 0.576620 0.952459
-1.007120 0.579808 0.952459
-1.007120 0.579227 0.981306
-0.950944 0.583300 0.981306
-1.063296 0.575154 0.981306
-1.119472 0.571080 0.981306
-1.119472 0.573431 0.952459
-1.175648 0.570243 0.952459
-1.175648 0.573479 0.923613
-1.175648 0.576715 0.894766
-1.231824 0.571175 0.923613
-1.231824 0.575296 0.894766
-1.288000 0.568872 0.923613
-1.288000 0.573878 0.894766
-1.288000 0.563866 0.952459
-1.231824 0.567054 0.952459
-1.231824 0.562933 0.981306
-1.175648 0.567007 0.981306
-1.231824 0.579417 0.865919
-1.288000 0.578884 0.865919
-1.231824 0.583539 0.837073
-1.175648 0.583187 0.837073
-1.175648 0.579951 0.865919
-1.288000 0.583890 0.837073
-1.288000 0.558860 0.981306
-1.288000 0.553854 1.010152
-1.231824 0.558812 1.010152
-1.288000 0.548847 1.038999
-1.231824 0.554691 1.038999
-1.175648 0.563771 1.010152
-1.175648 0.560535 1.038999
-1.119472 0.568729 1.010152
-1.119472 0.566378 1.038999
-1.063296 0.573688 1.010152
-1.063296 0.572222 1.038999
-1.175648 0.557299 1.067845
-1.119472 0.564027 1.067845
-1.063296 0.570756 1.067845
-1.119472 0.564174 1.096692
-1.063296 0.566207 1.096692
-1.288000 0.543841 1.067845
-1.231824 0.550570 1.067845
-1.007120 0.578646 1.010152
-1.007120 0.578065 1.038999
-0.950944 0.583605 1.010152
-0.950944 0.583909 1.038999
-0.894768 0.588563 1.010152
-0.894768 0.589752 1.038999
-0.838592 0.593522 1.010152
-0.838592 0.595596 1.038999
-0.950944 0.584213 1.067845
-0.894768 0.590942 1.067845
-0.838592 0.597670 1.067845
-1.007120 0.577484 1.067845
-1.063296 0.570756 1.067845
-0.894768 0.527480 0.635147
-0.894768 0.519773 0.606300
-0.838592 0.523289 0.606300
-0.838592 0.530512 0.635147
-0.950944 0.524447 0.635147
-0.950944 0.516256 0.606300
-0.894768 0.511287 0.577454
-0.950944 0.511176 0.577454
-0.950944 0.532637 0.663993
-1.007120 0.530088 0.663993
-1.007120 0.538762 0.692840
-0.950944 0.540828 0.692840
-0.894768 0.535186 0.663993
-0.894768 0.542893 0.692840
-0.838592 0.537736 0.663993
-0.838592 0.544959 0.692840
-0.950944 0.549018 0.721686
-0.894768 0.550600 0.721686
-0.838592 0.552183 0.721686
-0.894768 0.558307 0.750533
-0.838592 0.559406 0.750533
-1.063296 0.536696 0.692840
-1.063296 0.527539 0.663993
-1.119472 0.534630 0.692840
-1.119472 0.524989 0.663993
-1.063296 0.545854 0.721686
-1.007120 0.547436 0.721686
-1.007120 0.556110 0.750533
-0.950944 0.557208 0.750533
-1.175648 0.532565 0.692840
-1.175648 0.522440 0.663993
-1.231824 0.530499 0.692840
-1.231824 0.519891 0.663993
-1.175648 0.542689 0.721686
-1.119472 0.544271 0.721686
-1.119472 0.553912 0.750533
-1.063296 0.555011 0.750533
-1.288000 0.528433 0.692840
-1.288000 0.517342 0.663993
-1.288000 0.539524 0.721686
-1.231824 0.541107 0.721686
-1.231824 0.551715 0.750533
-1.175648 0.552813 0.750533
-1.231824 0.509283 0.635147
-1.288000 0.506250 0.635147
-1.231824 0.498675 0.606300
-1.175648 0.502191 0.606300
-1.175648 0.512316 0.635147
-1.288000 0.495159 0.606300
-1.288000 0.550616 0.750533
-1.288000 0.561707 0.779380
-1.231824 0.562323 0.779380
-1.288000 0.572799 0.808226
-1.231824 0.572931 0.808226
-1.175648 0.562938 0.779380
-1.175648 0.573062 0.808226
-1.119472 0.563553 0.779380
-1.119472 0.573194 0.808226
-1.063296 0.564168 0.779380
-1.063296 0.573326 0.808226
-1.175648 0.583187 0.837073
-1.119472 0.582835 0.837073
-1.063296 0.582483 0.837073
-1.288000 0.583890 0.837073
-1.231824 0.583539 0.837073
-1.007120 0.564784 0.779380
-1.007120 0.573458 0.808226
-0.950944 0.565399 0.779380
-0.950944 0.573589 0.808226
-0.894768 0.566014 0.779380
-0.894768 0.573721 0.808226
-0.838592 0.566629 0.779380
-0.838592 0.573853 0.808226
-0.950944 0.581780 0.837073
-0.894768 0.581428 0.837073
-0.838592 0.581076 0.837073
-1.007120 0.582132 0.837073
-0.445359 0.686543 1.327465
-0.445359 0.701168 1.298618
-0.389183 0.742621 1.298618
-0.389183 0.722404 1.327465
-0.389183 0.759202 1.269771
-0.445359 0.718594 1.269771
-0.389183 0.775784 1.240925
-0.445359 0.736019 1.240925
-0.501535 0.677985 1.269771
-0.501535 0.696255 1.240925
-0.557711 0.637377 1.269771
-0.557711 0.656490 1.240925
-0.501535 0.659716 1.298618
-0.613887 0.596769 1.269771
-0.613887 0.616726 1.240925
-0.670063 0.556160 1.269771
-0.670063 0.576962 1.240925
-0.726239 0.515552 1.269771
-0.726239 0.537197 1.240925
-0.782416 0.474943 1.269771
-0.782416 0.497433 1.240925
-0.726239 0.493906 1.298618
-0.670063 0.535358 1.298618
-0.613887 0.576811 1.298618
-0.838592 0.434335 1.269771
-0.838592 0.457668 1.240925
-0.838592 0.411001 1.298618
-0.782416 0.452454 1.298618
-0.782416 0.519922 1.212078
-0.838592 0.481002 1.212078
-0.782416 0.542412 1.183232
-0.726240 0.580488 1.183232
-0.726240 0.558843 1.212078
-0.726240 0.602134 1.154385
-0.670063 0.639366 1.154385
-0.670063 0.660168 1.125539
-0.613887 0.696556 1.125539
-0.613887 0.676599 1.154385
-0.557711 0.732945 1.125539
-0.557711 0.713831 1.154385
-0.501535 0.769333 1.125539
-0.501535 0.751063 1.154385
-0.445359 0.805721 1.125539
-0.445359 0.788296 1.154385
-0.389183 0.842110 1.125539
-0.389183 0.825528 1.154385
-0.501535 0.732794 1.183232
-0.445359 0.770870 1.183232
-0.389183 0.808947 1.183232
-0.445359 0.753445 1.212078
-0.389183 0.792365 1.212078
-0.613887 0.656641 1.183232
-0.557711 0.694718 1.183232
-0.557711 0.675604 1.212078
-0.501535 0.714524 1.212078
-0.613887 0.636684 1.212078
-0.670063 0.597763 1.212078
-0.670063 0.618565 1.183232
-0.445359 0.823147 1.096692
-0.445359 0.840573 1.067845
-0.389183 0.875273 1.067845
-0.389183 0.858691 1.096692
-0.501535 0.787603 1.096692
-0.501535 0.805872 1.067845
-0.557711 0.752058 1.096692
-0.557711 0.771172 1.067845
-0.613887 0.716514 1.096692
-0.613887 0.736472 1.067845
-0.670064 0.680970 1.096692
-0.670064 0.701771 1.067845
-0.726240 0.645425 1.096692
-0.726240 0.667071 1.067845
-0.782416 0.609881 1.096692
-0.782416 0.632371 1.067845
-0.838592 0.574337 1.096692
-0.838592 0.597670 1.067845
-0.838592 0.551003 1.125539
-0.782416 0.587391 1.125539
-0.838592 0.527669 1.154385
-0.782416 0.564902 1.154385
-0.726240 0.623780 1.125539
-0.838592 0.504336 1.183232
-0.445359 0.626100 0.865919
-0.445359 0.595462 0.837073
-0.389183 0.597517 0.837073
-0.389183 0.632236 0.865919
-0.445359 0.656739 0.894766
-0.389183 0.666956 0.894766
-0.445359 0.687378 0.923612
-0.389183 0.701675 0.923612
-0.445359 0.718017 0.952459
-0.389183 0.736395 0.952459
-0.445359 0.748656 0.981306
-0.389183 0.771114 0.981306
-0.445359 0.779295 1.010152
-0.389183 0.805834 1.010152
-0.445359 0.809934 1.038999
-0.389183 0.840553 1.038999
-0.445359 0.840573 1.067845
-0.389183 0.875273 1.067845
-0.445359 0.697060 0.635147
-0.445359 0.711574 0.606300
-0.389183 0.738472 0.606300
-0.389183 0.720853 0.635147
-0.445359 0.682546 0.663993
-0.389183 0.703233 0.663993
-0.445359 0.668032 0.692840
-0.389183 0.685614 0.692840
-0.445359 0.653518 0.721686
-0.389183 0.667994 0.721686
-0.445359 0.639004 0.750533
-0.389183 0.650375 0.750533
-0.445359 0.624490 0.779379
-0.389183 0.632755 0.779379
-0.445359 0.609976 0.808226
-0.389183 0.615136 0.808226
-0.445359 0.595462 0.837073
-0.389183 0.597517 0.837073
0.004049 0.539132 1.558237
0.004049 0.500981 1.529391
0.060226 0.489566 1.529391
0.060226 0.533716 1.558237
0.004049 0.799474 1.327465
0.004049 0.842115 1.298618
0.060225 0.856329 1.298618
0.060225 0.810483 1.327465
-0.052127 0.788464 1.327465
-0.052127 0.827902 1.298618
-0.108303 0.777454 1.327465
-0.108303 0.813688 1.298618
-0.164479 0.766444 1.327465
-0.164479 0.799475 1.298618
0.004049 0.756832 1.356311
-0.052127 0.749025 1.356311
-0.052127 0.788464 1.327465
0.060225 0.764638 1.356311
0.004049 0.714190 1.385158
0.004049 0.756832 1.356311
0.060225 0.718793 1.385158
-0.052127 0.709587 1.385158
-0.052127 0.749025 1.356311
-0.108303 0.704985 1.385158
-0.108303 0.741219 1.356311
0.004049 0.671548 1.414004
-0.052127 0.670149 1.414004
-0.052127 0.709587 1.385158
0.060225 0.672947 1.414004
0.004049 0.628907 1.442851
0.060225 0.627102 1.442851
-0.164479 0.700382 1.385158
-0.164479 0.733413 1.356311
-0.108303 0.668750 1.414004
-0.108303 0.704985 1.385158
-0.164479 0.667351 1.414004
-0.164479 0.634320 1.442851
-0.108303 0.632516 1.442851
-0.052127 0.630711 1.442851
-0.052127 0.670149 1.414004
-0.108303 0.668750 1.414004
0.004049 0.586265 1.471698
-0.052127 0.591273 1.471698
-0.052127 0.630711 1.442851
0.060225 0.581257 1.471698
0.004049 0.543623 1.500544
0.060225 0.581257 1.471698
0.060225 0.535411 1.500544
-0.052127 0.551835 1.500544
-0.052127 0.591273 1.471698
-0.108303 0.560047 1.500544
-0.108303 0.596281 1.471698
-0.164479 0.568258 1.500544
-0.164479 0.601289 1.471698
-0.108303 0.596281 1.471698
-0.108303 0.632516 1.442851
0.060225 0.535411 1.500544
0.116402 0.579670 1.471698
0.116402 0.538480 1.500544
0.060226 0.489566 1.529391
0.116402 0.497291 1.529391
0.116402 0.620860 1.442851
0.060225 0.627102 1.442851
0.116402 0.662050 1.414004
0.060225 0.672947 1.414004
0.116402 0.703240 1.385158
0.060225 0.718793 1.385158
0.116402 0.744430 1.356311
0.060225 0.764638 1.356311
0.116402 0.785619 1.327465
0.060225 0.810483 1.327465
0.116402 0.826809 1.298618
0.060225 0.856329 1.298618
0.004049 0.729163 1.096692
0.004049 0.713027 1.067845
0.060225 0.689849 1.067845
0.060225 0.710659 1.096692
0.004049 0.465486 0.865919
0.004049 0.430123 0.837073
0.060225 0.406210 0.837073
0.060225 0.441665 0.865919
-0.052127 0.489308 0.865919
-0.052127 0.454037 0.837073
-0.108303 0.513129 0.865919
-0.108303 0.477950 0.837073
-0.164479 0.536950 0.865919
-0.164479 0.501863 0.837073
-0.220655 0.560772 0.865919
-0.220655 0.525777 0.837073
-0.164479 0.572038 0.894766
-0.108303 0.548308 0.894766
-0.164479 0.607125 0.923612
-0.220655 0.630762 0.923612
-0.220655 0.595767 0.894766
-0.108303 0.583487 0.923612
-0.052127 0.524579 0.894766
-0.052127 0.559850 0.923612
0.004049 0.500849 0.894766
0.004049 0.536212 0.923612
0.060225 0.477120 0.894766
0.060225 0.512574 0.923612
-0.052127 0.595121 0.952459
0.004049 0.571575 0.952459
0.060225 0.548029 0.952459
0.004049 0.606938 0.981306
0.060225 0.583484 0.981306
-0.164479 0.642212 0.952459
-0.108303 0.618666 0.952459
-0.108303 0.653845 0.981306
-0.052127 0.630392 0.981306
-0.164479 0.677299 0.981306
-0.220655 0.700753 0.981306
-0.220655 0.665758 0.952459
-0.276831 0.689303 0.952459
-0.276831 0.654400 0.923612
-0.276831 0.619497 0.894766
-0.333007 0.678038 0.923612
-0.333007 0.643226 0.894766
-0.389183 0.701675 0.923612
-0.389183 0.666956 0.894766
-0.389183 0.736395 0.952459
-0.333007 0.712849 0.952459
-0.333007 0.747661 0.981306
-0.276831 0.724207 0.981306
-0.333007 0.608415 0.865919
-0.389183 0.632236 0.865919
-0.333007 0.573603 0.837073
-0.276831 0.549690 0.837073
-0.276831 0.584593 0.865919
-0.389183 0.597517 0.837073
-0.389183 0.771114 0.981306
-0.389183 0.805834 1.010152
-0.333007 0.782472 1.010152
-0.389183 0.840553 1.038999
-0.333007 0.817283 1.038999
-0.276831 0.759110 1.010152
-0.276831 0.794014 1.038999
-0.220655 0.735748 1.010152
-0.220655 0.770744 1.038999
-0.164479 0.712386 1.010152
-0.164479 0.747474 1.038999
-0.276831 0.828917 1.067845
-0.220655 0.805739 1.067845
-0.164479 0.782561 1.067845
-0.389183 0.875273 1.067845
-0.333007 0.852095 1.067845
-0.108303 0.689025 1.010152
-0.108303 0.724204 1.038999
-0.052127 0.665663 1.010152
-0.052127 0.700934 1.038999
0.004049 0.642301 1.010152
0.004049 0.677664 1.038999
0.060225 0.618939 1.010152
0.060225 0.654394 1.038999
-0.052127 0.736205 1.067845
0.004049 0.713027 1.067845
0.060225 0.689849 1.067845
-0.108303 0.759383 1.067845
0.004049 0.747007 0.635146
0.004049 0.792276 0.606300
0.060225 0.799962 0.606300
0.060225 0.750743 0.635146
-0.052127 0.743270 0.635146
-0.052127 0.784590 0.606300
-0.108303 0.739534 0.635146
-0.108303 0.776903 0.606300
-0.108303 0.702165 0.663993
-0.052127 0.701951 0.663993
-0.108303 0.664796 0.692840
-0.052127 0.660632 0.692840
0.004049 0.701738 0.663993
0.004049 0.656469 0.692840
0.060225 0.701524 0.663993
0.060225 0.652305 0.692840
0.004049 0.701738 0.663993
0.004049 0.747007 0.635146
-0.052127 0.701951 0.663993
-0.052127 0.743270 0.635146
0.004049 0.611200 0.721686
0.004049 0.656469 0.692840
-0.052127 0.619313 0.721686
-0.052127 0.660632 0.692840
0.060225 0.603086 0.721686
-0.108303 0.627427 0.721686
-0.052127 0.577994 0.750533
0.004049 0.565931 0.750533
0.004049 0.611200 0.721686
0.060225 0.553867 0.750533
-0.108303 0.590057 0.750533
-0.052127 0.619313 0.721686
-0.108303 0.552688 0.779379
-0.052127 0.536675 0.779379
-0.108303 0.515319 0.808226
-0.052127 0.495356 0.808226
0.004049 0.520661 0.779379
0.004049 0.475392 0.808226
0.060225 0.504648 0.779379
0.060225 0.455429 0.808226
0.004049 0.565931 0.750533
-0.052127 0.536675 0.779379
-0.052127 0.577994 0.750533
0.004049 0.430123 0.837073
0.004049 0.475392 0.808226
-0.052127 0.454037 0.837073
-0.052127 0.495356 0.808226
0.060225 0.406210 0.837073
-0.108303 0.477950 0.837073
0.453458 0.537913 1.558237
0.453458 0.543639 1.529391
0.509634 0.551363 1.529391
0.509634 0.538513 1.558237
0.453458 0.636435 1.327465
0.453458 0.649691 1.298618
0.509634 0.620171 1.298618
0.509634 0.611571 1.327465
0.453458 0.495574 1.096692
0.453458 0.473557 1.067845
0.509634 0.442659 1.067845
0.509634 0.464848 1.096692
0.397282 0.526301 1.096692
0.397282 0.504456 1.067845
0.341106 0.557027 1.096692
0.341106 0.535355 1.067845
0.284930 0.587753 1.096692
0.284930 0.566254 1.067845
0.228754 0.618480 1.096692
0.228754 0.597152 1.067845
0.284930 0.609253 1.125538
0.341106 0.578699 1.125538
0.284930 0.630752 1.154385
0.228754 0.661134 1.154385
0.228754 0.639807 1.125538
0.341106 0.600371 1.154385
0.397282 0.548145 1.125538
0.397282 0.569989 1.154385
0.453458 0.517591 1.125538
0.453458 0.539608 1.154385
0.509634 0.487037 1.125538
0.509634 0.509226 1.154385
0.397282 0.591833 1.183232
0.453458 0.561624 1.183232
0.509634 0.531415 1.183232
0.453458 0.583641 1.212078
0.509634 0.553604 1.212078
0.284930 0.652252 1.183232
0.341106 0.622043 1.183232
0.341106 0.643715 1.212078
0.397282 0.613678 1.212078
0.284930 0.673751 1.212078
0.228754 0.703788 1.212078
0.228754 0.682461 1.183232
0.172578 0.712670 1.183232
0.172578 0.691516 1.154385
0.172578 0.670361 1.125538
0.116402 0.721897 1.154385
0.116402 0.700915 1.125538
0.060225 0.752279 1.154385
0.060225 0.731469 1.125538
0.060225 0.773089 1.183232
0.116402 0.742880 1.183232
0.116402 0.763862 1.212078
0.172578 0.733825 1.212078
0.116402 0.679932 1.096692
0.060225 0.710659 1.096692
0.116402 0.658950 1.067845
0.172578 0.628051 1.067845
0.172578 0.649206 1.096692
0.060225 0.689849 1.067845
0.060225 0.793899 1.212078
0.060225 0.814709 1.240925
0.116402 0.784844 1.240925
0.060225 0.835519 1.269771
0.116402 0.805827 1.269771
0.172578 0.754980 1.240925
0.172578 0.776135 1.269771
0.228754 0.725115 1.240925
0.228754 0.746443 1.269771
0.284930 0.695251 1.240925
0.284930 0.716751 1.269771
0.172578 0.797290 1.298618
0.228754 0.767770 1.298618
0.284930 0.738250 1.298618
0.060225 0.856329 1.298618
0.116402 0.826809 1.298618
0.341106 0.665387 1.240925
0.341106 0.687059 1.269771
0.397282 0.635522 1.240925
0.397282 0.657366 1.269771
0.453458 0.605658 1.240925
0.453458 0.627674 1.269771
0.509634 0.575793 1.240925
0.509634 0.597982 1.269771
0.397282 0.679211 1.298618
0.453458 0.649691 1.298618
0.509634 0.620171 1.298618
0.341106 0.708730 1.298618
0.453458 0.564279 0.865919
0.453458 0.577239 0.837073
0.509634 0.601671 0.837073
0.509634 0.581795 0.865919
0.453458 0.533751 0.635146
0.453458 0.527538 0.606300
0.509634 0.488621 0.606300
0.509634 0.502752 0.635146
0.902866 0.746986 1.558237
0.902866 0.770006 1.529391
0.959043 0.801241 1.529391
0.959043 0.776768 1.558237
0.846690 0.717204 1.558237
0.846690 0.738772 1.529391
0.790514 0.687422 1.558237
0.790514 0.707537 1.529391
0.734338 0.657641 1.558237
0.734338 0.676302 1.529391
0.678162 0.627859 1.558237
0.678162 0.645068 1.529391
0.734338 0.638979 1.587084
0.790514 0.667308 1.587084
0.734338 0.620317 1.615931
0.678162 0.593441 1.615931
0.678162 0.610650 1.587084
0.790514 0.647193 1.615931
0.846690 0.695637 1.587084
0.846690 0.674070 1.615931
0.902866 0.723966 1.587084
0.902866 0.700946 1.615931
0.959043 0.752295 1.587084
0.959043 0.727822 1.615931
0.846690 0.652502 1.644777
0.902866 0.677926 1.644777
0.959043 0.703349 1.644777
0.902866 0.654906 1.673624
0.959043 0.678876 1.673624
0.734338 0.601656 1.644777
0.790514 0.627079 1.644777
0.790514 0.606964 1.673624
0.846690 0.630935 1.673624
0.734338 0.582994 1.673624
0.678162 0.559023 1.673624
0.678162 0.576232 1.644777
0.621986 0.550809 1.644777
0.621986 0.566565 1.615931
0.621986 0.582321 1.587084
0.565810 0.539688 1.615931
0.565810 0.553992 1.587084
0.509634 0.512812 1.615931
0.509634 0.525663 1.587084
0.509634 0.499962 1.644777
0.565810 0.525385 1.644777
0.565810 0.511082 1.673624
0.621986 0.535053 1.673624
0.565810 0.568295 1.558237
0.509634 0.538513 1.558237
0.565810 0.582598 1.529391
0.621986 0.613833 1.529391
0.621986 0.598077 1.558237
0.509634 0.551363 1.529391
0.509634 0.487111 1.673624
0.509634 0.474261 1.702470
0.565810 0.496779 1.702470
0.509634 0.461411 1.731317
0.565810 0.482476 1.731317
0.621986 0.519297 1.702470
0.621986 0.503541 1.731317
0.678162 0.541814 1.702470
0.678162 0.524605 1.731317
0.734338 0.564332 1.702470
0.734338 0.545670 1.731317
0.621986 0.487785 1.760164
0.678162 0.507397 1.760164
0.734338 0.527009 1.760164
0.509634 0.448560 1.760164
0.565810 0.468172 1.760164
0.790514 0.586850 1.702470
0.790514 0.566735 1.731317
0.846690 0.609368 1.702470
0.846690 0.587800 1.731317
0.902866 0.631886 1.702470
0.902866 0.608865 1.731317
0.959043 0.654403 1.702470
0.959043 0.629930 1.731317
0.846690 0.566233 1.760164
0.902866 0.585845 1.760164
0.959043 0.605457 1.760164
0.790514 0.546621 1.760164
0.902866 0.590313 1.327465
0.902866 0.564642 1.298618
0.959043 0.556709 1.298618
0.959043 0.587276 1.327465
0.902866 0.525079 1.096692
0.902866 0.519427 1.067845
0.959043 0.530394 1.067845
0.959043 0.533683 1.096692
0.902866 0.530731 1.125538
0.959043 0.536973 1.125538
0.902866 0.536383 1.154385
0.959043 0.540262 1.154385
0.902866 0.542034 1.183232
0.959043 0.543551 1.183232
0.902866 0.547686 1.212078
0.959043 0.546841 1.212078
0.902866 0.553338 1.240925
0.959043 0.550130 1.240925
0.902866 0.558990 1.269771
0.959043 0.553420 1.269771
0.902866 0.564642 1.298618
0.959043 0.556709 1.298618
0.902866 0.666924 0.865919
0.902866 0.687995 0.837073
0.959043 0.700327 0.837073
0.959043 0.679085 0.865919
0.846690 0.654762 0.865919
0.846690 0.675663 0.837073
0.790514 0.642601 0.865919
0.790514 0.663331 0.837073
0.734338 0.630440 0.865919
0.734338 0.650999 0.837073
0.678162 0.618279 0.865919
0.678162 0.638667 0.837073
0.734338 0.609881 0.894766
0.790514 0.621871 0.894766
0.734338 0.589322 0.923612
0.678162 0.577502 0.923612
0.678162 0.597890 0.894766
0.790514 0.601142 0.923612
0.846690 0.633862 0.894766
0.846690 0.612962 0.923612
0.902866 0.645853 0.894766
0.902866 0.624782 0.923612
0.959043 0.657843 0.894766
0.959043 0.636602 0.923612
0.846690 0.592061 0.952459
0.902866 0.603711 0.952459
0.959043 0.615360 0.952459
0.902866 0.582640 0.981306
0.959043 0.594118 0.981306
0.734338 0.568763 0.952459
0.790514 0.580412 0.952459
0.790514 0.559682 0.981306
0.846690 0.571161 0.981306
0.734338 0.548203 0.981306
0.678162 0.536725 0.981306
0.678162 0.557113 0.952459
0.621986 0.545464 0.952459
0.621986 0.565682 0.923612
0.621986 0.585899 0.894766
0.565810 0.553862 0.923612
0.565810 0.573909 0.894766
0.509634 0.542042 0.923612
0.509634 0.561918 0.894766
0.509634 0.522165 0.952459
0.565810 0.533814 0.952459
0.565810 0.513767 0.981306
0.621986 0.525246 0.981306
0.565810 0.593956 0.865919
0.509634 0.581795 0.865919
0.565810 0.614003 0.837073
0.621986 0.626335 0.837073
0.621986 0.606117 0.865919
0.509634 0.601671 0.837073
0.509634 0.502288 0.981306
0.509634 0.482412 1.010152
0.565810 0.493720 1.010152
0.509634 0.462535 1.038999
0.565810 0.473673 1.038999
0.621986 0.505028 1.010152
0.621986 0.484810 1.038999
0.678162 0.516336 1.010152
0.678162 0.495948 1.038999
0.734338 0.527644 1.010152
0.734338 0.507085 1.038999
0.621986 0.464592 1.067845
0.678162 0.475559 1.067845
0.734338 0.486526 1.067845
0.509634 0.442659 1.067845
0.565810 0.453625 1.067845
0.790514 0.538952 1.010152
0.790514 0.518223 1.038999
0.846690 0.550261 1.010152
0.846690 0.529360 1.038999
0.902866 0.561569 1.010152
0.902866 0.540498 1.038999
0.959043 0.572877 1.010152
0.959043 0.551635 1.038999
0.846690 0.508460 1.067845
0.902866 0.519427 1.067845
0.959043 0.530394 1.067845
0.790514 0.497493 1.067845
0.902866 0.576760 0.635146
0.902866 0.560869 0.606300
0.959042 0.571191 0.606300
0.959042 0.587333 0.635146
0.846690 0.566187 0.635146
0.846690 0.550548 0.606300
0.790514 0.555615 0.635146
0.790514 0.540227 0.606300
0.734338 0.545042 0.635146
0.734338 0.529906 0.606300
0.678162 0.534470 0.635146
0.678162 0.519584 0.606300
0.734338 0.560179 0.663993
0.790514 0.571003 0.663993
0.734338 0.575316 0.692840
0.678162 0.564240 0.692840
0.678162 0.549355 0.663993
0.790514 0.586391 0.692840
0.846690 0.581827 0.663993
0.846690 0.597466 0.692840
0.902866 0.592651 0.663993
0.902866 0.608541 0.692840
0.959042 0.603475 0.663993
0.959042 0.619617 0.692840
0.846690 0.613105 0.721686
0.902866 0.624432 0.721686
0.959042 0.635759 0.721686
0.902866 0.640323 0.750533
0.959042 0.651901 0.750533
0.734338 0.590452 0.721686
0.790514 0.601779 0.721686
0.790514 0.617167 0.750533
0.846690 0.628745 0.750533
0.734338 0.605589 0.750533
0.678162 0.594011 0.750533
0.678162 0.579126 0.721686
0.621986 0.567799 0.721686
0.621986 0.553165 0.692840
0.621986 0.538531 0.663993
0.565810 0.542090 0.692840
0.565810 0.527707 0.663993
0.509634 0.531015 0.692840
0.509634 0.516883 0.663993
0.509634 0.545146 0.721686
0.565810 0.556473 0.721686
0.565810 0.570855 0.750533
0.621986 0.582433 0.750533
0.565810 0.513325 0.635146
0.509634 0.502752 0.635146
0.565810 0.498942 0.606300
0.621986 0.509263 0.606300
0.621986 0.523897 0.635146
0.509634 0.488621 0.606300
0.509634 0.559277 0.750533
0.509634 0.573409 0.779379
0.565810 0.585238 0.779379
0.509634 0.587540 0.808226
0.565810 0.599621 0.808226
0.621986 0.597067 0.779379
0.621986 0.611701 0.808226
0.678162 0.608896 0.779379
0.678162 0.623782 0.808226
0.734338 0.620726 0.779379
0.734338 0.635862 0.808226
0.621986 0.626335 0.837073
0.678162 0.638667 0.837073
0.734338 0.650999 0.837073
0.509634 0.601671 0.837073
0.565810 0.614003 0.837073
0.790514 0.632555 0.779379
0.790514 0.647943 0.808226
0.846690 0.644384 0.779379
0.846690 0.660023 0.808226
0.902866 0.656213 0.779379
0.902866 0.672104 0.808226
0.959042 0.668043 0.779379
0.959042 0.684185 0.808226
0.846690 0.675663 0.837073
0.902866 0.687995 0.837073
0.959043 0.700327 0.837073
0.790514 0.663331 0.837073
1.352275 0.535894 1.558237
1.352275 0.531037 1.529391
1.408451 0.492437 1.529391
1.408451 0.501484 1.558237
1.352275 0.798794 1.327465
1.352275 0.837045 1.298618
1.408451 0.877093 1.298618
1.408451 0.829011 1.327465
1.352275 0.780144 1.096692
1.352275 0.772016 1.067845
1.408451 0.806533 1.067845
1.408451 0.815353 1.096692
1.296099 0.744936 1.096692
1.296099 0.737498 1.067845
1.239923 0.709727 1.096692
1.239923 0.702981 1.067845
1.183747 0.674518 1.096692
1.183747 0.668463 1.067845
1.127571 0.639309 1.096692
1.127571 0.633946 1.067845
1.183747 0.680573 1.125538
1.239923 0.716473 1.125538
1.183747 0.686628 1.154385
1.127571 0.650036 1.154385
1.127571 0.644673 1.125538
1.239923 0.723219 1.154385
1.296099 0.752373 1.125538
1.296099 0.759810 1.154385
1.352275 0.788273 1.125538
1.352275 0.796402 1.154385
1.408451 0.824173 1.125538
1.408451 0.832993 1.154385
1.296099 0.767248 1.183232
1.352275 0.804530 1.183232
1.408451 0.841813 1.183232
1.352275 0.812659 1.212078
1.408451 0.850633 1.212078
1.183747 0.692682 1.183232
1.239923 0.729965 1.183232
1.239923 0.736711 1.212078
1.296099 0.774685 1.212078
1.183747 0.698737 1.212078
1.127571 0.660763 1.212078
1.127571 0.655399 1.183232
1.071395 0.618117 1.183232
1.071395 0.613445 1.154385
1.071395 0.608773 1.125538
1.015219 0.576853 1.154385
1.015219 0.572873 1.125538
0.959043 0.540262 1.154385
0.959043 0.536973 1.125538
0.959043 0.543551 1.183232
1.015219 0.580834 1.183232
1.015219 0.584815 1.212078
1.071395 0.622789 1.212078
1.015219 0.568892 1.096692
0.959043 0.533683 1.096692
1.015219 0.564911 1.067845
1.071395 0.599429 1.067845
1.071395 0.604101 1.096692
0.959043 0.530394 1.067845
0.959043 0.546841 1.212078
0.959043 0.550130 1.240925
1.015219 0.588796 1.240925
0.959043 0.553420 1.269771
1.015219 0.592776 1.269771
1.071395 0.627461 1.240925
1.071395 0.632133 1.269771
1.127571 0.666126 1.240925
1.127571 0.671490 1.269771
1.183747 0.704792 1.240925
1.183747 0.710846 1.269771
1.071395 0.636805 1.298618
1.127571 0.676853 1.298618
1.183747 0.716901 1.298618
0.959043 0.556709 1.298618
1.015219 0.596757 1.298618
1.239923 0.743457 1.240925
1.239923 0.750203 1.269771
1.296099 0.782122 1.240925
1.296099 0.789559 1.269771
1.352275 0.820787 1.240925
1.352275 0.828916 1.269771
1.408451 0.859453 1.240925
1.408451 0.868273 1.269771
1.296099 0.796997 1.298618
1.352275 0.837045 1.298618
1.408451 0.877093 1.298618
1.239923 0.756949 1.298618
1.352275 0.517352 0.865919
1.352275 0.480971 0.837073
1.408451 0.449635 0.837073
1.408451 0.494247 0.865919
1.352275 0.452632 0.635146
1.352275 0.448584 0.606300
1.408451 0.431069 0.606300
1.408451 0.433390 0.635146
1.352275 0.456681 0.663993
1.408451 0.435710 0.663993
1.352275 0.460729 0.692840
1.408451 0.438031 0.692840
1.352275 0.464778 0.721686
1.408451 0.440352 0.721686
1.352275 0.468826 0.750533
1.408451 0.442672 0.750533
1.352275 0.472874 0.779379
1.408451 0.444993 0.779379
1.352275 0.476923 0.808226
1.408451 0.447314 0.808226
1.352275 0.480971 0.837073
1.408451 0.449635 0.837073
1.127571 0.529604 0.635146
1.127571 0.518645 0.606300
1.183747 0.501130 0.606300
1.183747 0.510361 0.635146
1.127571 0.540563 0.663993
1.183747 0.519592 0.663993
1.127571 0.551522 0.692840
1.183747 0.528824 0.692840
1.127571 0.562481 0.721686
1.183747 0.538055 0.721686
1.127571 0.573440 0.750533
1.183747 0.547286 0.750533
1.127571 0.584399 0.779379
1.183747 0.556518 0.779379
1.127571 0.595358 0.808226
1.183747 0.565749 0.808226
1.071395 0.624967 0.808226
1.071395 0.612280 0.779379
1.015219 0.654576 0.808226
1.015218 0.640161 0.779379
0.959042 0.684185 0.808226
0.959042 0.668043 0.779379
0.959043 0.700327 0.837073
1.015219 0.668990 0.837073
1.071395 0.624967 0.808226
1.071395 0.637654 0.837073
1.127571 0.595358 0.808226
1.127571 0.606317 0.837073
1.183747 0.574981 0.837073
0.959042 0.651901 0.750533
1.015218 0.625747 0.750533
1.015218 0.611333 0.721686
0.959042 0.635759 0.721686
1.015218 0.596918 0.692840
0.959042 0.619617 0.692840
1.071395 0.574220 0.692840
1.071395 0.586907 0.721686
1.127571 0.551522 0.692840
1.127571 0.562481 0.721686
1.071395 0.599594 0.750533
1.071395 0.586907 0.721686
1.015218 0.611333 0.721686
1.015218 0.640161 0.779379
1.127571 0.573440 0.750533
1.071395 0.574220 0.692840
1.127571 0.540563 0.663993
1.071395 0.561533 0.663993
1.015218 0.596918 0.692840
1.015218 0.582504 0.663993
0.959042 0.603475 0.663993
0.959042 0.587333 0.635146
1.015218 0.568090 0.635146
1.015218 0.582504 0.663993
1.071395 0.548847 0.635146
1.015218 0.568090 0.635146
1.071395 0.536160 0.606300
1.015218 0.553675 0.606300
0.959042 0.571191 0.606300
1.071395 0.612280 0.779379
1.071395 0.599594 0.750533
1.127571 0.584399 0.779379
1.127571 0.609771 0.865919
1.127571 0.606317 0.837073
1.183747 0.574981 0.837073
1.183747 0.586666 0.865919
1.183747 0.565749 0.808226
1.239923 0.536140 0.808226
1.239923 0.528637 0.779379
1.183747 0.556518 0.779379
1.239923 0.543644 0.837073
1.239923 0.521133 0.750533
1.183747 0.547286 0.750533
1.239923 0.513629 0.721686
1.183747 0.538055 0.721686
1.239923 0.506126 0.692840
1.183747 0.528824 0.692840
1.239923 0.498622 0.663993
1.183747 0.519592 0.663993
1.239923 0.491118 0.635146
1.183747 0.510361 0.635146
1.239923 0.483614 0.606300
1.183747 0.501130 0.606300
1.127571 0.623585 0.981306
1.127571 0.620132 0.952459
1.183747 0.621722 0.952459
1.183747 0.633407 0.981306
1.352275 0.662874 0.981306
1.352275 0.626494 0.952459
1.408451 0.628084 0.952459
1.408451 0.672696 0.981306
1.127571 0.677926 1.327465
1.127571 0.676853 1.298618
1.183747 0.716901 1.298618
1.183747 0.708143 1.327465
1.127571 0.682220 1.442851
1.127571 0.681146 1.414004
1.183747 0.681870 1.414004
1.183747 0.673112 1.442851
1.352275 0.645790 1.442851
1.352275 0.684041 1.414004
1.408451 0.684765 1.414004
1.408451 0.636683 1.442851
1.127571 0.673536 1.558237
1.127571 0.685439 1.529391
1.183747 0.646839 1.529391
1.183747 0.639126 1.558237
1.127571 0.625924 1.673624
1.127571 0.637828 1.644777
1.183747 0.615987 1.644777
1.183747 0.608274 1.673624
1.352275 0.555322 1.673624
1.352275 0.550465 1.644777
1.408451 0.528624 1.644777
1.408451 0.537671 1.673624
0.678162 0.490661 1.096692
0.678162 0.475559 1.067845
0.734338 0.486526 1.067845
0.734338 0.499265 1.096692
0.678162 0.505763 1.125538
0.734338 0.512005 1.125538
0.678162 0.520864 1.154385
0.734338 0.524744 1.154385
0.678162 0.535966 1.183232
0.734338 0.537483 1.183232
0.678162 0.551068 1.212078
0.734338 0.550223 1.212078
0.678162 0.566170 1.240925
0.734338 0.562962 1.240925
0.678162 0.581271 1.269771
0.734338 0.575701 1.269771
0.678162 0.596373 1.298618
0.734338 0.588440 1.298618
0.734338 0.599423 1.327465
0.790514 0.580508 1.298618
0.790514 0.596386 1.327465
0.678162 0.602460 1.327465
0.678162 0.596373 1.298618
0.734338 0.588440 1.298618
0.734338 0.599423 1.327465
0.678162 0.626807 1.442851
0.678162 0.620720 1.414004
0.734338 0.632371 1.414004
0.734338 0.643354 1.442851
0.902866 0.692995 1.442851
0.902866 0.667324 1.414004
0.959043 0.678975 1.414004
0.959043 0.709542 1.442851
0.228754 0.657746 0.635146
0.228754 0.683209 0.606300
0.284930 0.644291 0.606300
0.284930 0.626748 0.635146
0.284930 0.660962 0.577453
0.341106 0.627766 0.577453
0.341106 0.605374 0.606300
0.228754 0.555896 0.750533
0.228754 0.581358 0.721686
0.284930 0.574116 0.721686
0.284930 0.556572 0.750533
0.453458 0.558601 0.750533
0.453458 0.552389 0.721686
0.509634 0.545146 0.721686
0.509634 0.559277 0.750533
0.228754 0.494213 0.865919
0.228754 0.479508 0.837073
0.284930 0.503941 0.837073
0.284930 0.511730 0.865919
0.228754 0.553036 0.981306
0.228754 0.538330 0.952459
0.284930 0.535097 0.952459
0.284930 0.542886 0.981306
0.453458 0.512438 0.981306
0.453458 0.525398 0.952459
0.509634 0.522165 0.952459
0.509634 0.502288 0.981306
0.228754 0.735891 1.327465
0.228754 0.767770 1.298618
0.284930 0.738250 1.298618
0.284930 0.711027 1.327465
0.228754 0.608376 1.442851
0.228754 0.640255 1.414004
0.284930 0.629357 1.414004
0.284930 0.602134 1.442851
0.453458 0.583408 1.442851
0.453458 0.596665 1.414004
0.509634 0.585767 1.414004
0.509634 0.577166 1.442851
0.228754 0.535515 1.558237
0.228754 0.512740 1.529391
0.284930 0.520465 1.529391
0.284930 0.536114 1.558237
0.228754 0.626613 1.673624
0.228754 0.603839 1.644777
0.284930 0.583063 1.644777
0.284930 0.598713 1.673624
0.453458 0.515012 1.673624
0.453458 0.520737 1.644777
0.509634 0.499962 1.644777
0.509634 0.487111 1.673624
-0.220655 0.732061 0.635146
-0.220655 0.761531 0.606300
-0.164479 0.769217 0.606300
-0.164479 0.735798 0.635146
-0.220655 0.702592 0.663993
-0.164479 0.702379 0.663993
-0.220655 0.673123 0.692840
-0.164479 0.668959 0.692840
-0.220655 0.643654 0.721686
-0.164479 0.635540 0.721686
-0.220655 0.614184 0.750533
-0.164479 0.602121 0.750533
-0.220655 0.584715 0.779379
-0.164479 0.568702 0.779379
-0.220655 0.555246 0.808226
-0.164479 0.535283 0.808226
-0.220655 0.525777 0.837073
-0.164479 0.501863 0.837073
-0.220655 0.803179 1.096692
-0.220655 0.805739 1.067845
-0.164479 0.782561 1.067845
-0.164479 0.784675 1.096692
-0.220655 0.792940 1.212078
-0.220655 0.795500 1.183232
-0.164479 0.791018 1.183232
-0.164479 0.793132 1.212078
0.004049 0.793707 1.212078
0.004049 0.777571 1.183232
0.060225 0.773089 1.183232
0.060225 0.793899 1.212078
-0.220655 0.755434 1.327465
-0.220655 0.785261 1.298618
-0.164479 0.799475 1.298618
-0.164479 0.766444 1.327465
-0.220655 0.725607 1.356311
-0.164479 0.733413 1.356311
-0.220655 0.695779 1.385158
-0.164479 0.700382 1.385158
-0.220655 0.665952 1.414004
-0.164479 0.667351 1.414004
-0.220655 0.636125 1.442851
-0.164479 0.634320 1.442851
-0.220655 0.606297 1.471698
-0.164479 0.601289 1.471698
-0.220655 0.576470 1.500544
-0.164479 0.568258 1.500544
-0.220655 0.546643 1.529391
-0.164479 0.535227 1.529391
-0.220655 0.560795 1.558237
-0.220655 0.546643 1.529391
-0.164479 0.535227 1.529391
-0.164479 0.555379 1.558237
-0.220655 0.617404 1.673624
-0.220655 0.603251 1.644777
-0.164479 0.615834 1.644777
-0.164479 0.635986 1.673624
0.004049 0.691732 1.673624
0.004049 0.653582 1.644777
0.060226 0.666165 1.644777
0.060226 0.710314 1.673624
-0.670064 0.601890 0.635147
-0.670064 0.603983 0.606300
-0.613888 0.630880 0.606300
-0.613888 0.625682 0.635147
-0.670064 0.599797 0.663993
-0.613888 0.620484 0.663993
-0.670064 0.593519 0.750533
-0.670064 0.595612 0.721686
-0.613888 0.610088 0.721686
-0.613888 0.604890 0.750533
-0.670064 0.601558 0.865919
-0.670064 0.587241 0.837073
-0.613887 0.589296 0.837073
-0.613887 0.607693 0.865919
-0.670064 0.658823 0.981306
-0.670064 0.644506 0.952459
-0.613887 0.662884 0.952459
-0.613887 0.681281 0.981306
-0.670063 0.543096 1.327465
-0.670063 0.535358 1.298618
-0.613887 0.576811 1.298618
-0.613887 0.578957 1.327465
-0.670063 0.574046 1.442851
-0.670063 0.566308 1.414004
-0.613887 0.585398 1.414004
-0.613887 0.587544 1.442851
-0.445359 0.628040 1.442851
-0.445359 0.642666 1.414004
-0.389183 0.661755 1.414004
-0.389183 0.641538 1.442851
-0.670063 0.543157 1.673624
-0.670063 0.553977 1.644777
-0.613887 0.556282 1.644777
-0.613887 0.546857 1.673624
-0.557711 0.550557 1.673624
-0.557711 0.558587 1.644777
-0.501535 0.560893 1.644777
-0.501535 0.554257 1.673624
-0.557711 0.542526 1.702470
-0.557711 0.550557 1.673624
-0.613887 0.537431 1.702470
-0.613887 0.546857 1.673624
-0.501535 0.547621 1.702470
-0.670063 0.532336 1.702470
-0.557711 0.534495 1.731317
-0.557711 0.542526 1.702470
-0.501535 0.540985 1.731317
-0.445359 0.552716 1.702470
-0.445359 0.547475 1.731317
-0.389183 0.557811 1.702470
-0.389183 0.553964 1.731317
-0.445359 0.542233 1.760164
-0.445359 0.547475 1.731317
-0.501535 0.534349 1.760164
-0.501535 0.540985 1.731317
-0.389183 0.550118 1.760164
-0.557711 0.526464 1.760164
-0.557711 0.534495 1.731317
-0.613887 0.528006 1.731317
-0.445359 0.552716 1.702470
-0.389183 0.561657 1.673624
-0.445359 0.557957 1.673624
-0.501535 0.547621 1.702470
-0.501535 0.554257 1.673624
-0.445359 0.557957 1.673624
-0.445359 0.563198 1.644777
-1.119472 0.515348 0.635147
-1.119472 0.505707 0.606300
-1.063296 0.509224 0.606300
-1.063296 0.518381 0.635147
-1.007120 0.512740 0.606300
-1.007120 0.521414 0.635147
-0.950944 0.516256 0.606300
-1.119472 0.564763 1.212078
-1.119472 0.564616 1.183232
-1.063296 0.552560 1.183232
-1.063296 0.548011 1.212078
-0.894768 0.497754 1.212078
-0.894768 0.516392 1.183232
-0.838592 0.504336 1.183232
-0.838592 0.481002 1.212078
-1.119472 0.559248 1.327465
-1.119472 0.565204 1.298618
-1.063296 0.534364 1.298618
-1.063296 0.534500 1.327465
-1.063296 0.538913 1.269771
-1.119472 0.565057 1.269771
-1.119472 0.535422 1.442851
-1.119472 0.541378 1.414004
-1.063296 0.534911 1.414004
-1.063296 0.535047 1.442851
-0.894768 0.533925 1.442851
-0.894768 0.515508 1.414004
-0.838592 0.509040 1.414004
-0.838592 0.533550 1.442851
0.678162 0.701165 0.404374
0.678162 0.727106 0.375527
0.734338 0.701112 0.375527
0.734338 0.679711 0.404374
0.678162 0.597405 0.519760
0.678162 0.623345 0.490913
0.734338 0.615509 0.490913
0.734338 0.594108 0.519760
0.902866 0.584218 0.519760
0.902866 0.592001 0.490913
0.959042 0.584165 0.490913
0.959042 0.580922 0.519760
1.015218 0.578784 0.490913
1.015218 0.572507 0.519760
0.959042 0.587409 0.462067
1.015218 0.585061 0.462067
1.015218 0.578784 0.490913
0.228754 0.759853 0.404374
0.228754 0.770802 0.375527
0.284930 0.777658 0.375527
0.284930 0.760988 0.404374
0.228754 0.716056 0.519760
0.228754 0.727005 0.490913
0.284930 0.710975 0.490913
0.284930 0.694304 0.519760
0.453458 0.629047 0.519760
0.453458 0.662883 0.490913
0.509634 0.646853 0.490913
0.509634 0.607295 0.519760
-0.220655 0.783187 0.404374
-0.220655 0.786281 0.375527
-0.164479 0.779071 0.375527
-0.164479 0.777839 0.404374
-0.220655 0.780093 0.433220
-0.164479 0.776607 0.433220
-0.220655 0.776999 0.462067
-0.164479 0.775376 0.462067
-0.220655 0.773906 0.490913
-0.164479 0.774144 0.490913
-0.220655 0.770812 0.519760
-0.164479 0.772912 0.519760
-0.220655 0.767718 0.548607
-0.164479 0.771680 0.548607
-0.220655 0.764624 0.577453
-0.164479 0.770449 0.577453
-0.220655 0.761531 0.606300
-0.164479 0.769217 0.606300
-0.670064 0.574745 0.404374
-0.670064 0.570569 0.375527
-0.613888 0.618037 0.375527
-0.613888 0.619642 0.404374
-0.670064 0.578922 0.433220
-0.613888 0.621248 0.433220
-0.670064 0.583099 0.462067
-0.613888 0.622853 0.462067
-0.670064 0.587276 0.490914
-0.613888 0.624459 0.490914
-0.670064 0.591452 0.519760
-0.613888 0.626064 0.519760
-0.670064 0.595629 0.548607
-0.613888 0.627669 0.548607
-0.670064 0.599806 0.577454
-0.613888 0.629275 0.577453
-0.670064 0.603983 0.606300
-0.613888 0.630880 0.606300
-1.119472 0.541650 0.404374
-1.119472 0.546784 0.375527
-1.063296 0.523060 0.375527
-1.063296 0.521331 0.404374
-1.119472 0.521111 0.519760
-1.119472 0.526246 0.490914
-1.063296 0.516142 0.490914
-1.063296 0.514412 0.519760
-0.894768 0.494316 0.519760
-0.894768 0.485830 0.490914
-0.838592 0.475727 0.490914
-0.838592 0.487617 0.519760
1.127571 0.605054 0.404374
1.127571 0.617398 0.375527
1.183747 0.624150 0.375527
1.183747 0.608773 0.404374
1.127571 0.555677 0.519760
1.127571 0.568021 0.490913
1.183747 0.562640 0.490913
1.183747 0.547262 0.519760
1.127571 0.543333 0.548607
1.183747 0.531885 0.548607
1.127571 0.530989 0.577453
1.183747 0.516507 0.577453
1.127571 0.518645 0.606300
1.183747 0.501130 0.606300
1.239923 0.538848 0.519760
1.239923 0.557259 0.490913
1.296099 0.551877 0.490913
1.296099 0.530433 0.519760
1.296099 0.573322 0.462067
1.239923 0.575670 0.462067
1.296099 0.594766 0.433220
1.239923 0.594081 0.433220
1.296099 0.616211 0.404374
1.239923 0.612492 0.404374
1.296099 0.637655 0.375527
1.239923 0.630903 0.375527
1.239923 0.520437 0.548607
1.296099 0.508988 0.548607
1.239923 0.502026 0.577453
1.296099 0.487544 0.577453
1.239923 0.483614 0.606300
1.296099 0.466099 0.606300
1.015218 0.572507 0.519760
1.015218 0.578784 0.490913
1.071395 0.573403 0.490913
1.071395 0.564092 0.519760
1.015218 0.559952 0.577453
1.015218 0.566230 0.548607
1.071395 0.554781 0.548607
1.071395 0.545471 0.577453
1.015218 0.597615 0.404374
1.015218 0.603892 0.375527
1.071395 0.610645 0.375527
1.071395 0.601334 0.404374
1.015218 0.585061 0.462067
1.015218 0.591338 0.433220
1.071395 0.592024 0.433220
1.071395 0.582713 0.462067
1.127571 0.580365 0.462067
1.127571 0.592709 0.433220
1.183747 0.593395 0.433220
1.183747 0.578017 0.462067
-1.007120 0.507714 0.519760
-1.007120 0.506038 0.490914
-0.950944 0.495934 0.490914
-0.950944 0.501015 0.519760
-1.007120 0.511065 0.577454
-1.007120 0.509389 0.548607
-0.950944 0.506095 0.548607
-0.950944 0.511176 0.577454
-0.894768 0.511287 0.577454
-0.894768 0.502802 0.548607
-0.838592 0.499508 0.548607
-0.838592 0.511398 0.577454
-1.231824 0.534509 0.519760
-1.231824 0.546454 0.490914
-1.175648 0.536350 0.490914
-1.175648 0.527810 0.519760
-1.231824 0.510620 0.577454
-1.231824 0.522564 0.548607
-1.175648 0.519271 0.548607
-1.175648 0.510731 0.577454
-1.119472 0.510842 0.577454
-1.119472 0.515977 0.548607
-1.063296 0.512683 0.548607
-1.063296 0.510953 0.577454
-1.231824 0.582288 0.404374
-1.231824 0.594232 0.375527
-1.175648 0.570508 0.375527
-1.175648 0.561969 0.404374
-1.231824 0.558398 0.462067
-1.231824 0.570343 0.433221
-1.175648 0.553429 0.433221
-1.175648 0.544889 0.462067
-1.119472 0.531381 0.462067
-1.119472 0.536515 0.433221
-1.063296 0.519601 0.433221
-1.063296 0.517872 0.462067
-0.557711 0.660676 0.519760
-0.557711 0.661642 0.490913
-0.501535 0.698825 0.490913
-0.501535 0.695288 0.519760
-0.501535 0.702362 0.462067
-0.557711 0.662608 0.462067
-0.501535 0.705899 0.433220
-0.557711 0.663573 0.433220
-0.501535 0.709436 0.404374
-0.557711 0.664539 0.404374
-0.501535 0.712973 0.375527
-0.557711 0.665505 0.375527
-0.557711 0.659710 0.548607
-0.501535 0.691750 0.548607
-0.557711 0.658744 0.577453
-0.501535 0.688213 0.577453
-0.557711 0.657778 0.606300
-0.501535 0.684676 0.606300
-0.782416 0.522229 0.519760
-0.782416 0.512910 0.490914
-0.726240 0.550093 0.490914
-0.726240 0.556841 0.519760
-0.726240 0.543345 0.462067
-0.782416 0.503590 0.462067
-0.726240 0.536597 0.433221
-0.782416 0.494271 0.433221
-0.726240 0.529848 0.404374
-0.782416 0.484952 0.404374
-0.726240 0.523101 0.375527
-0.782416 0.475632 0.375527
-0.782416 0.531548 0.548607
-0.726240 0.563589 0.548607
-0.782416 0.540867 0.577454
-0.726240 0.570337 0.577454
-0.782416 0.550187 0.606300
-0.726240 0.577085 0.606300
-0.108303 0.775013 0.519760
-0.108303 0.774382 0.490913
-0.052127 0.774620 0.490913
-0.052127 0.777113 0.519760
-0.052127 0.772128 0.462067
-0.108303 0.773752 0.462067
-0.052127 0.769636 0.433220
-0.108303 0.773122 0.433220
-0.052127 0.767144 0.404374
-0.108303 0.772491 0.404374
-0.052127 0.764651 0.375527
-0.108303 0.771861 0.375527
-0.108303 0.775643 0.548607
-0.052127 0.779605 0.548607
-0.108303 0.776273 0.577453
-0.052127 0.782097 0.577453
-0.108303 0.776903 0.606300
-0.052127 0.784590 0.606300
-0.333007 0.766611 0.519760
-0.333007 0.773429 0.490913
-0.276831 0.773667 0.490913
-0.276831 0.768712 0.519760
-0.276831 0.778623 0.462067
-0.333007 0.780247 0.462067
-0.276831 0.783579 0.433220
-0.333007 0.787065 0.433220
-0.276831 0.788535 0.404374
-0.333007 0.793882 0.404374
-0.276831 0.793490 0.375527
-0.333007 0.800700 0.375527
-0.333007 0.759794 0.548607
-0.276831 0.763756 0.548607
-0.333007 0.752976 0.577453
-0.276831 0.758800 0.577453
-0.333007 0.746158 0.606300
-0.276831 0.753844 0.606300
0.341106 0.672552 0.519760
0.341106 0.694944 0.490913
0.397282 0.678914 0.490913
0.397282 0.650799 0.519760
0.341106 0.627766 0.577453
0.341106 0.650159 0.548607
0.397282 0.622685 0.548607
0.397282 0.594570 0.577453
0.453458 0.561375 0.577453
0.453458 0.595211 0.548607
0.509634 0.567737 0.548607
0.509634 0.528179 0.577453
0.116401 0.759561 0.519760
0.116401 0.759066 0.490913
0.172577 0.743036 0.490913
0.172577 0.737809 0.519760
0.116401 0.760550 0.577453
0.116401 0.760055 0.548607
0.172577 0.732581 0.548607
0.172577 0.727354 0.577453
0.228754 0.694158 0.577453
0.228754 0.705107 0.548607
0.284930 0.677633 0.548607
0.284930 0.660962 0.577453
0.116401 0.757583 0.404374
0.116401 0.757089 0.375527
0.172577 0.763945 0.375527
0.172577 0.758718 0.404374
0.116401 0.758572 0.462067
0.116401 0.758078 0.433220
0.172577 0.753491 0.433220
0.172577 0.748263 0.462067
0.228754 0.737955 0.462067
0.228754 0.748904 0.433220
0.284930 0.744317 0.433220
0.284930 0.727646 0.462067
0.790514 0.590811 0.519760
0.790514 0.607673 0.490913
0.846690 0.599837 0.490913
0.846690 0.587515 0.519760
0.790514 0.557088 0.577453
0.790514 0.573950 0.548607
0.846690 0.575192 0.548607
0.846690 0.562870 0.577453
0.902866 0.568652 0.577453
0.902866 0.576435 0.548607
0.959042 0.577678 0.548607
0.959042 0.574434 0.577453
0.565810 0.603998 0.519760
0.565810 0.639017 0.490913
0.621986 0.631181 0.490913
0.621986 0.600701 0.519760
0.565810 0.533961 0.577453
0.565810 0.568979 0.548607
0.621986 0.570222 0.548607
0.621986 0.539743 0.577453
0.678162 0.545525 0.577453
0.678162 0.571465 0.548607
0.734338 0.572707 0.548607
0.734338 0.551306 0.577453
0.565810 0.744073 0.404374
0.565810 0.779092 0.375527
0.621986 0.753099 0.375527
0.621986 0.722619 0.404374
0.565810 0.674036 0.462067
0.565810 0.709054 0.433220
0.621986 0.692140 0.433220
0.621986 0.661660 0.462067
0.678162 0.649285 0.462067
0.678162 0.675225 0.433220
0.734338 0.658311 0.433220
0.734338 0.636910 0.462067
-1.007120 0.480053 1.731317
-1.007120 0.490526 1.702470
-0.950944 0.499368 1.702470
-0.950944 0.487384 1.731317
-1.063296 0.472721 1.731317
-1.063296 0.481684 1.702470
-1.119472 0.465390 1.731317
-1.119472 0.472842 1.702470
-1.119472 0.457938 1.760164
-1.063296 0.463759 1.760164
-0.950944 0.475401 1.760164
-0.950944 0.487384 1.731317
-0.894768 0.481221 1.760164
-1.007120 0.469580 1.760164
-1.007120 0.480053 1.731317
-1.063296 0.472721 1.731317
-1.063296 0.490646 1.673624
-1.063296 0.481684 1.702470
-1.007120 0.500999 1.673624
-1.007120 0.490526 1.702470
-1.231824 0.459588 1.673624
