# .PCD v.7 - Point Cloud Data file format
VERSION .7
FIELDS x y z
SIZE 4 4 4
TYPE F F F
COUNT 1 1 1
WIDTH 1715
HEIGHT 1
POINTS 1715
DATA ascii
0.902866 0.413001 0.524876
0.902866 0.435354 0.510453
0.874778 0.422160 0.524876
0.874778 0.442881 0.510453
0.902866 0.390648 0.539300
0.930954 0.379857 0.539300
0.959042 0.369066 0.539300
0.846690 0.431319 0.524876
0.846690 0.450408 0.510453
0.818602 0.440478 0.524876
0.818602 0.457935 0.510453
0.790514 0.449637 0.524876
0.790514 0.465462 0.510453
0.874778 0.401439 0.539300
0.874778 0.422160 0.524876
0.846690 0.412230 0.539300
0.818602 0.423021 0.539300
0.818602 0.440478 0.524876
0.790514 0.433812 0.539300
0.846690 0.450408 0.510453
0.874778 0.463602 0.496030
0.846690 0.469497 0.496030
0.818602 0.457935 0.510453
0.818602 0.475392 0.496030
0.790514 0.481288 0.496030
0.818602 0.475392 0.496030
0.818602 0.492849 0.481607
0.846690 0.488586 0.481607
-0.866680 0.458580 1.476814
-0.866680 0.461657 1.462391
-0.838592 0.461838 1.462391
-0.838592 0.457504 1.476814
-0.866680 0.455504 1.491237
-0.838592 0.453170 1.491237
-0.866680 0.452428 1.505661
-0.838592 0.448836 1.505661
-0.866680 0.449351 1.520084
-0.838592 0.444503 1.520084
-0.866680 0.446275 1.534507
-0.838592 0.440169 1.534507
-0.866680 0.443199 1.548931
-0.838592 0.435835 1.548931
-0.866680 0.440122 1.563354
-0.838592 0.431501 1.563354
-0.866680 0.437046 1.577777
-0.838592 0.427167 1.577777
-0.866680 0.433970 1.592201
-0.838591 0.422833 1.592201
-0.866680 0.430893 1.606624
-0.838591 0.418499 1.606624
-0.866680 0.427817 1.621047
-0.838591 0.414165 1.621047
-0.866680 0.424741 1.635470
-0.838591 0.409831 1.635470
-0.866680 0.421664 1.649894
-0.838591 0.405498 1.649894
-0.866680 0.418588 1.664317
-0.838591 0.401164 1.664317
-0.866680 0.415511 1.678740
-0.838591 0.396830 1.678740
-0.866680 0.412435 1.693164
-0.838591 0.392496 1.693164
-0.866680 0.751707 1.246041
-0.866680 0.771043 1.231618
-0.838592 0.798175 1.231618
-0.838592 0.777154 1.246041
-0.894768 0.726259 1.246041
-0.894768 0.743912 1.231618
-0.922856 0.700812 1.246041
-0.922856 0.716780 1.231618
-0.922856 0.684844 1.260465
-0.894768 0.708607 1.260465
-0.894768 0.726259 1.246041
-0.866680 0.732370 1.260465
-0.838592 0.756133 1.260465
-0.922856 0.668876 1.274888
-0.922856 0.684844 1.260465
-0.894768 0.690955 1.274888
-0.866680 0.732370 1.260465
-0.866680 0.713033 1.274888
-0.838592 0.735112 1.274888
-0.866680 0.693697 1.289311
-0.894768 0.673303 1.289311
-0.894768 0.690955 1.274888
-0.838592 0.714091 1.289311
-0.922856 0.652908 1.289311
-0.922856 0.636941 1.303735
-0.894768 0.655650 1.303735
-0.922856 0.620973 1.318158
-0.894768 0.637998 1.318158
-0.922856 0.605005 1.332581
-0.894768 0.620346 1.332581
-0.866680 0.655023 1.318158
-0.866680 0.635687 1.332581
-0.838592 0.672049 1.318158
-0.838592 0.651028 1.332581
-0.866680 0.616350 1.347004
-0.894768 0.602693 1.347004
-0.894768 0.620346 1.332581
-0.838592 0.630007 1.347004
-0.922856 0.589037 1.347004
-0.894768 0.585041 1.361428
-0.866680 0.597013 1.361428
-0.866680 0.616350 1.347004
-0.838592 0.608986 1.361428
-0.866680 0.577677 1.375851
-0.894768 0.567389 1.375851
-0.894768 0.585041 1.361428
-0.838592 0.587964 1.375851
-0.922856 0.573069 1.361428
-0.894768 0.602693 1.347004
-0.922856 0.557101 1.375851
-0.894768 0.567389 1.375851
-0.922856 0.541133 1.390274
-0.894768 0.549737 1.390274
-0.866680 0.577677 1.375851
-0.866680 0.558340 1.390274
-0.838592 0.566943 1.390274
-0.866680 0.539003 1.404698
-0.894768 0.532085 1.404698
-0.894768 0.549737 1.390274
-0.838592 0.545922 1.404698
-0.922856 0.525166 1.404698
-0.894768 0.514432 1.419121
-0.866680 0.519667 1.419121
-0.866680 0.539003 1.404698
-0.838592 0.524901 1.419121
-0.922856 0.509198 1.419121
-0.894768 0.532085 1.404698
-0.922856 0.493230 1.433544
-0.894768 0.496780 1.433544
-0.922856 0.477262 1.447968
-0.894768 0.479128 1.447968
-0.866680 0.500330 1.433544
-0.866680 0.480993 1.447968
-0.838592 0.503880 1.433544
-0.838592 0.482859 1.447968
-0.810504 0.506618 1.433544
-0.810504 0.487289 1.447968
-0.782416 0.509357 1.433544
-0.782416 0.491719 1.447968
-0.754327 0.512095 1.433544
-0.754327 0.496149 1.447968
-0.866680 0.461657 1.462391
-0.866680 0.480993 1.447968
-0.894768 0.461475 1.462391
-0.894768 0.479128 1.447968
-0.838592 0.461838 1.462391
-0.922856 0.461294 1.462391
-0.782416 0.474081 1.462391
-0.782416 0.491719 1.447968
-0.754327 0.480202 1.462391
-0.810504 0.467959 1.462391
-0.810504 0.487289 1.447968
-0.838592 0.461838 1.462391
-0.838592 0.482859 1.447968
-0.782416 0.509357 1.433544
-0.754327 0.528041 1.419121
-0.782416 0.526995 1.419121
-0.782416 0.526995 1.419121
-0.754327 0.543988 1.404698
-0.782416 0.544632 1.404698
-0.754327 0.559934 1.390274
-0.782416 0.562270 1.390274
-0.810504 0.545277 1.404698
-0.810504 0.564607 1.390274
-0.838592 0.545922 1.404698
-0.838592 0.566943 1.390274
-0.838592 0.524901 1.419121
-0.810504 0.525948 1.419121
-0.782416 0.544632 1.404698
-0.810504 0.545277 1.404698
-0.782416 0.562270 1.390274
-0.754327 0.575880 1.375851
-0.782416 0.579908 1.375851
-0.810504 0.564607 1.390274
-0.810504 0.583936 1.375851
-0.838592 0.587964 1.375851
-0.838592 0.608986 1.361428
-0.810504 0.603266 1.361428
-0.810504 0.583936 1.375851
-0.782416 0.597546 1.361428
-0.810504 0.603266 1.361428
-0.782416 0.615184 1.347004
-0.810504 0.622595 1.347004
-0.838592 0.630007 1.347004
-0.838592 0.651028 1.332581
-0.810504 0.641925 1.332581
-0.810504 0.622595 1.347004
-0.782416 0.632822 1.332581
-0.782416 0.615184 1.347004
-0.754327 0.623719 1.332581
-0.754327 0.607773 1.347004
-0.754327 0.591827 1.361428
-0.782416 0.632822 1.332581
-0.754327 0.639666 1.318158
-0.782416 0.650460 1.318158
-0.810504 0.641925 1.332581
-0.810504 0.661254 1.318158
-0.838592 0.672049 1.318158
-0.810504 0.680584 1.303735
-0.838592 0.693070 1.303735
-0.782416 0.668098 1.303735
-0.810504 0.680584 1.303735
-0.782416 0.685736 1.289311
-0.810504 0.699913 1.289311
-0.838592 0.714091 1.289311
-0.810504 0.719243 1.274888
-0.838592 0.735112 1.274888
-0.782416 0.703374 1.274888
-0.782416 0.685736 1.289311
-0.754327 0.687505 1.274888
-0.754327 0.703451 1.260465
-0.782416 0.721012 1.260465
-0.810504 0.719243 1.274888
-0.810504 0.738572 1.260465
-0.754327 0.671558 1.289311
-0.838592 0.756133 1.260465
-0.810504 0.757902 1.246041
-0.838592 0.777154 1.246041
-0.782416 0.738650 1.246041
-0.810504 0.757902 1.246041
-0.782416 0.756287 1.231618
-0.810504 0.777231 1.231618
-0.838592 0.798175 1.231618
-0.754327 0.735344 1.231618
-0.754327 0.719397 1.246041
-0.782416 0.721012 1.260465
-0.754327 0.655612 1.303735
-0.782416 0.650460 1.318158
-0.782416 0.668098 1.303735
-0.866680 0.512686 1.015269
-0.866680 0.495462 1.000845
-0.838592 0.486748 1.000845
-0.838592 0.506212 1.015269
-0.866680 0.403010 0.784496
-0.866680 0.396846 0.770073
-0.838592 0.384546 0.770073
-0.838592 0.390933 0.784496
-0.894768 0.415086 0.784496
-0.894768 0.409147 0.770073
-0.922856 0.427162 0.784496
-0.922856 0.421447 0.770073
-0.950944 0.439239 0.784496
-0.950944 0.433748 0.770073
-0.979032 0.451315 0.784496
-0.979032 0.446048 0.770073
-0.950944 0.444730 0.798919
-0.922856 0.432878 0.798919
-0.950944 0.450221 0.813343
-0.979032 0.461849 0.813343
-0.979032 0.456582 0.798919
-0.922856 0.438593 0.813343
-0.894768 0.421025 0.798919
-0.894768 0.426965 0.813343
-0.866680 0.409173 0.798919
-0.866680 0.415337 0.813343
-0.838592 0.397321 0.798919
-0.838592 0.403709 0.813343
-0.894768 0.432904 0.827766
-0.866680 0.421500 0.827766
-0.838592 0.410096 0.827766
-0.866680 0.427664 0.842189
-0.838592 0.416484 0.842189
-0.950944 0.455712 0.827766
-0.922856 0.444308 0.827766
-0.922856 0.450023 0.842189
-0.894768 0.438843 0.842189
-0.950944 0.461203 0.842189
-0.979032 0.472383 0.842189
-0.979032 0.467116 0.827766
-1.007120 0.478520 0.827766
-1.007120 0.473477 0.813343
-1.007120 0.468434 0.798919
-1.035208 0.485105 0.813343
-1.035208 0.480286 0.798919
-1.063296 0.496733 0.813343
-1.063296 0.492139 0.798919
-1.091384 0.508361 0.813343
-1.091384 0.503991 0.798919
-1.119472 0.519989 0.813343
-1.119472 0.515843 0.798919
-1.147560 0.531617 0.813343
-1.147560 0.527695 0.798919
-1.119472 0.524136 0.827766
-1.091384 0.512732 0.827766
-1.063296 0.501328 0.827766
-1.091384 0.517102 0.842189
-1.063296 0.505922 0.842189
-1.175648 0.543246 0.813343
-1.175648 0.539548 0.798919
-1.203736 0.554874 0.813343
-1.203736 0.551400 0.798919
-1.175648 0.546944 0.827766
-1.147560 0.535540 0.827766
-1.147560 0.539462 0.842189
-1.119472 0.528282 0.842189
-1.147560 0.523773 0.784496
-1.175648 0.535849 0.784496
-1.147560 0.519851 0.770073
-1.119472 0.507550 0.770073
-1.119472 0.511697 0.784496
-1.175648 0.532151 0.770073
-1.203736 0.547926 0.784496
-1.203736 0.544452 0.770073
-1.231824 0.566502 0.813343
-1.231824 0.569752 0.827766
-1.203736 0.558348 0.827766
-1.203736 0.561822 0.842189
-1.175648 0.550642 0.842189
-1.259912 0.581156 0.827766
-1.259912 0.584181 0.842189
-1.231824 0.573002 0.842189
-1.259912 0.578130 0.813343
-1.231824 0.563252 0.798919
-1.259912 0.575104 0.798919
-1.288000 0.589758 0.813343
-1.288000 0.586956 0.798919
-1.288000 0.592560 0.827766
-1.259912 0.572078 0.784496
-1.288000 0.584155 0.784496
-1.259912 0.569053 0.770073
-1.231824 0.556752 0.770073
-1.231824 0.560002 0.784496
-1.288000 0.581353 0.770073
-1.288000 0.595361 0.842189
-1.288000 0.598163 0.856613
-1.259912 0.587207 0.856613
-1.288000 0.600964 0.871036
-1.259912 0.590233 0.871036
-1.231824 0.576251 0.856613
-1.231824 0.579501 0.871036
-1.203736 0.565296 0.856613
-1.203736 0.568770 0.871036
-1.175648 0.554340 0.856613
-1.175648 0.558038 0.871036
-1.231824 0.582751 0.885459
-1.203736 0.572244 0.885459
-1.175648 0.561736 0.885459
-1.203736 0.575718 0.899882
-1.175648 0.565434 0.899882
-1.147560 0.551229 0.885459
-1.147560 0.555151 0.899882
-1.119472 0.540721 0.885459
-1.119472 0.544868 0.899882
-1.175648 0.569132 0.914306
-1.147560 0.559073 0.914306
-1.175648 0.572830 0.928729
-1.203736 0.582666 0.928729
-1.203736 0.579192 0.914306
-1.147560 0.562995 0.928729
-1.119472 0.549014 0.914306
-1.119472 0.553160 0.928729
-1.091384 0.538955 0.914306
-1.091384 0.543325 0.928729
-1.063296 0.528895 0.914306
-1.063296 0.533490 0.928729
-1.119472 0.557307 0.943152
-1.091384 0.547696 0.943152
-1.063296 0.538085 0.943152
-1.091384 0.552066 0.957576
-1.063296 0.542679 0.957576
-1.175648 0.576528 0.943152
-1.147560 0.566918 0.943152
-1.147560 0.570840 0.957576
-1.119472 0.561453 0.957576
-1.035208 0.518836 0.914306
-1.035208 0.523655 0.928729
-1.007120 0.508777 0.914306
-1.007120 0.513820 0.928729
-0.979032 0.498718 0.914306
-0.979032 0.503985 0.928729
-0.950944 0.488659 0.914306
-0.950944 0.494150 0.928729
-0.922856 0.478599 0.914306
-0.922856 0.484315 0.928729
-0.894768 0.468540 0.914306
-0.894768 0.474480 0.928729
-0.866680 0.458481 0.914306
-0.866680 0.464644 0.928729
-0.838592 0.448422 0.914306
-0.838592 0.454809 0.928729
-0.894768 0.480419 0.943152
-0.866680 0.470808 0.943152
-0.838592 0.461197 0.943152
-0.866680 0.476972 0.957576
-0.838592 0.467585 0.957576
-0.950944 0.499641 0.943152
-0.922856 0.490030 0.943152
-0.922856 0.495745 0.957576
-0.894768 0.486358 0.957576
-0.950944 0.505132 0.957576
-0.979032 0.514519 0.957576
-0.979032 0.509252 0.943152
-1.007120 0.518863 0.943152
-1.035208 0.528474 0.943152
-1.035208 0.533292 0.957576
-1.007120 0.523906 0.957576
-1.063296 0.547274 0.971999
-1.035208 0.538111 0.971999
-1.063296 0.551868 0.986422
-1.091384 0.560807 0.986422
-1.091384 0.556437 0.971999
-1.035208 0.542930 0.986422
-1.007120 0.528948 0.971999
-1.007120 0.533991 0.986422
-0.979032 0.519786 0.971999
-0.979032 0.525053 0.986422
-0.950944 0.510623 0.971999
-0.950944 0.516114 0.986422
-1.007120 0.539034 1.000845
-0.979032 0.530320 1.000845
-0.950944 0.521605 1.000845
-1.063296 0.556463 1.000845
-1.035208 0.547749 1.000845
-1.035208 0.551530 1.015269
-1.007120 0.545056 1.015269
-0.922856 0.501460 0.971999
-0.922856 0.507176 0.986422
-0.894768 0.492298 0.971999
-0.894768 0.498237 0.986422
-0.866680 0.483135 0.971999
-0.866680 0.489299 0.986422
-0.838592 0.473972 0.971999
-0.838592 0.480360 0.986422
-0.894768 0.504176 1.000845
-0.866680 0.495462 1.000845
-0.838592 0.486748 1.000845
-0.922856 0.512891 1.000845
-0.866680 0.549590 0.553723
-0.866680 0.559773 0.539300
-0.838592 0.568172 0.539300
-0.838592 0.556695 0.553723
-0.866680 0.539407 0.568147
-0.838592 0.545219 0.568147
-0.866680 0.529224 0.582570
-0.838592 0.533742 0.582570
-0.866680 0.519042 0.596993
-0.838592 0.522265 0.596993
-0.866680 0.508859 0.611417
-0.838592 0.510789 0.611417
-0.866680 0.498676 0.625840
-0.838592 0.499312 0.625840
-0.866680 0.488493 0.640263
-0.838592 0.487835 0.640263
-0.866680 0.478310 0.654686
-0.838592 0.487835 0.640263
-0.838592 0.476359 0.654686
-0.866680 0.468127 0.669110
-0.838592 0.464882 0.669110
-0.810504 0.474428 0.654686
-0.810504 0.462802 0.669110
-0.782416 0.472498 0.654686
-0.782416 0.460723 0.669110
-0.838592 0.453405 0.683533
-0.810504 0.451177 0.683533
-0.838592 0.441929 0.697956
-0.810504 0.439551 0.697956
-0.782416 0.448948 0.683533
-0.782416 0.437172 0.697956
-0.754328 0.446719 0.683533
-0.754328 0.434794 0.697956
-0.726240 0.444490 0.683533
-0.726240 0.432416 0.697956
-0.698152 0.442261 0.683533
-0.698152 0.430038 0.697956
-0.670064 0.440032 0.683533
-0.670064 0.427660 0.697956
-0.641976 0.437803 0.683533
-0.641976 0.425282 0.697956
-0.613888 0.435574 0.683533
-0.613888 0.422903 0.697956
-0.670064 0.415287 0.712380
-0.641976 0.412760 0.712380
-0.613887 0.410232 0.712380
-0.641975 0.400238 0.726803
-0.613887 0.397561 0.726803
-0.726240 0.420342 0.712380
-0.698152 0.417815 0.712380
-0.698152 0.405592 0.726803
-0.670064 0.402915 0.726803
-0.585799 0.433346 0.683533
-0.585799 0.420525 0.697956
-0.557711 0.431117 0.683533
-0.557711 0.418147 0.697956
-0.529623 0.428888 0.683533
-0.529623 0.415769 0.697956
-0.501535 0.426659 0.683533
-0.501535 0.413391 0.697956
-0.473447 0.424430 0.683533
-0.473447 0.411012 0.697956
-0.445359 0.422201 0.683533
-0.445359 0.408634 0.697956
-0.417271 0.419972 0.683533
-0.417271 0.406256 0.697956
-0.389183 0.417744 0.683533
-0.389183 0.403878 0.697956
-0.445359 0.395067 0.712379
-0.417271 0.392540 0.712379
-0.389183 0.390012 0.712379
-0.417271 0.378824 0.726803
-0.389183 0.376147 0.726803
-0.501535 0.400122 0.712380
-0.473447 0.397595 0.712379
-0.473447 0.384177 0.726803
-0.445359 0.381500 0.726803
-0.501535 0.386854 0.726803
-0.529623 0.389531 0.726803
-0.529623 0.402650 0.712380
-0.557711 0.405177 0.712380
-0.585799 0.407705 0.712380
-0.585799 0.394884 0.726803
-0.557711 0.392207 0.726803
-0.613887 0.384890 0.741226
-0.585799 0.382064 0.741226
-0.613887 0.372219 0.755649
-0.641975 0.375194 0.755649
-0.641975 0.387716 0.741226
-0.585799 0.369243 0.755649
-0.557711 0.379238 0.741226
-0.557711 0.366268 0.755649
-0.529623 0.376412 0.741226
-0.529623 0.363293 0.755649
-0.501535 0.373586 0.741226
-0.501535 0.360317 0.755649
-0.557711 0.353298 0.770073
-0.529623 0.350174 0.770073
-0.501535 0.347049 0.770073
-0.613887 0.359548 0.770073
-0.585799 0.356423 0.770073
-0.473447 0.370759 0.741226
-0.473447 0.357342 0.755649
-0.445359 0.367933 0.741226
-0.445359 0.354366 0.755649
-0.417271 0.365107 0.741226
-0.417271 0.351391 0.755649
-0.389183 0.362281 0.741226
-0.389183 0.348416 0.755649
-0.445359 0.340799 0.770073
-0.417271 0.337675 0.770073
-0.389183 0.334550 0.770073
-0.473447 0.343924 0.770073
-0.417271 0.539272 1.476814
-0.417271 0.553659 1.462391
-0.389183 0.559780 1.462391
-0.389183 0.544724 1.476814
-0.445359 0.533821 1.476814
-0.445359 0.547537 1.462391
-0.473447 0.528370 1.476814
-0.473447 0.541416 1.462391
-0.501535 0.522919 1.476814
-0.501535 0.535295 1.462391
-0.529623 0.517468 1.476814
-0.529623 0.529173 1.462391
-0.501535 0.510543 1.491237
-0.473447 0.515324 1.491237
-0.501535 0.498167 1.505661
-0.529623 0.494056 1.505661
-0.529623 0.505762 1.491237
-0.473447 0.502278 1.505661
-0.445359 0.520105 1.491237
-0.445359 0.506389 1.505661
-0.417271 0.524886 1.491237
-0.417271 0.510500 1.505661
-0.389183 0.529667 1.491237
-0.389183 0.514611 1.505661
-0.445359 0.492673 1.520084
-0.417271 0.496113 1.520084
-0.389183 0.499554 1.520084
-0.417271 0.481727 1.534507
-0.389183 0.484497 1.534507
-0.501535 0.485791 1.520084
-0.473447 0.489232 1.520084
-0.473447 0.476186 1.534507
-0.445359 0.478956 1.534507
-0.501535 0.473415 1.534507
-0.529623 0.470645 1.534507
-0.529623 0.482350 1.520084
-0.557711 0.478910 1.520084
-0.557711 0.489945 1.505661
-0.557711 0.500981 1.491237
-0.585799 0.485834 1.505661
-0.585799 0.496200 1.491237
-0.613887 0.481723 1.505661
-0.613887 0.491419 1.491237
-0.641975 0.477613 1.505661
-0.641975 0.486638 1.491237
-0.670063 0.473502 1.505661
-0.670063 0.481857 1.491237
-0.698151 0.469391 1.505661
-0.698151 0.477076 1.491237
-0.670063 0.465147 1.520084
-0.641975 0.468588 1.520084
-0.613887 0.472028 1.520084
-0.641975 0.459563 1.534507
-0.613887 0.462333 1.534507
-0.726239 0.465280 1.505661
-0.726239 0.472295 1.491237
-0.754327 0.461169 1.505661
-0.754327 0.467513 1.491237
-0.726239 0.458265 1.520084
-0.698151 0.461706 1.520084
-0.698151 0.454021 1.534507
-0.670063 0.456792 1.534507
-0.698151 0.484760 1.476814
-0.726239 0.479309 1.476814
-0.698151 0.492445 1.462391
-0.670063 0.498566 1.462391
-0.670063 0.490212 1.476814
-0.726239 0.486324 1.462391
-0.754327 0.473858 1.476814
-0.754327 0.480202 1.462391
-0.782416 0.457058 1.505661
-0.782416 0.451384 1.520084
-0.754327 0.454825 1.520084
-0.754327 0.448480 1.534507
-0.726239 0.451251 1.534507
-0.810504 0.447943 1.520084
-0.810504 0.442939 1.534507
-0.782416 0.445710 1.534507
-0.810504 0.452947 1.505661
-0.782416 0.462732 1.491237
-0.810504 0.457951 1.491237
-0.838592 0.448836 1.505661
-0.838592 0.453170 1.491237
-0.838592 0.444503 1.520084
-0.810504 0.462955 1.476814
-0.838592 0.457504 1.476814
-0.810504 0.467959 1.462391
-0.782416 0.474081 1.462391
-0.782416 0.468407 1.476814
-0.838592 0.461838 1.462391
-0.838592 0.440169 1.534507
-0.838592 0.435835 1.548931
-0.810504 0.437935 1.548931
-0.838592 0.431501 1.563354
-0.810503 0.432931 1.563354
-0.782415 0.440036 1.548931
-0.782415 0.434361 1.563354
-0.754327 0.442136 1.548931
-0.754327 0.435792 1.563354
-0.726239 0.444236 1.548931
-0.726239 0.437222 1.563354
-0.782415 0.428687 1.577777
-0.754327 0.429447 1.577777
-0.726239 0.430207 1.577777
-0.754327 0.423103 1.592201
-0.726239 0.423193 1.592201
-0.698151 0.430967 1.577777
-0.698151 0.423282 1.592201
-0.670063 0.431727 1.577777
-0.670063 0.423372 1.592201
-0.726239 0.416178 1.606624
-0.698151 0.415598 1.606624
-0.726239 0.409164 1.621047
-0.754327 0.410414 1.621047
-0.754327 0.416758 1.606624
-0.698151 0.407913 1.621047
-0.670063 0.415018 1.606624
-0.670063 0.406663 1.621047
-0.641975 0.414437 1.606624
-0.641975 0.405412 1.621047
-0.613887 0.413857 1.606624
-0.613887 0.404162 1.621047
-0.670063 0.398308 1.635470
-0.641975 0.396387 1.635470
-0.613887 0.394467 1.635470
-0.641975 0.387362 1.649894
-0.613887 0.384771 1.649894
-0.726239 0.402149 1.635470
-0.698151 0.400228 1.635470
-0.698151 0.392544 1.649894
-0.670063 0.389953 1.649894
-0.585799 0.413277 1.606624
-0.585799 0.402911 1.621047
-0.557711 0.412696 1.606624
-0.557711 0.401661 1.621047
-0.529623 0.412116 1.606624
-0.529623 0.400410 1.621047
-0.501535 0.411536 1.606624
-0.501535 0.399160 1.621047
-0.473447 0.410956 1.606624
-0.473447 0.397910 1.621047
-0.445359 0.410375 1.606624
-0.445359 0.396659 1.621047
-0.417271 0.409795 1.606624
-0.417271 0.395409 1.621047
-0.389183 0.409215 1.606624
-0.389183 0.394158 1.621047
-0.445359 0.382943 1.635470
-0.417271 0.381022 1.635470
-0.389183 0.379102 1.635470
-0.417271 0.366636 1.649894
-0.389183 0.364045 1.649894
-0.501535 0.386784 1.635470
-0.473447 0.384864 1.635470
-0.473447 0.371818 1.649894
-0.445359 0.369227 1.649894
-0.501535 0.374408 1.649894
-0.529623 0.376999 1.649894
-0.529623 0.388705 1.635470
-0.557711 0.390625 1.635470
-0.585799 0.392546 1.635470
-0.585799 0.382181 1.649894
-0.557711 0.379590 1.649894
-0.613887 0.375076 1.664317
-0.585799 0.371815 1.664317
-0.613887 0.365381 1.678740
-0.641975 0.369312 1.678740
-0.641975 0.378337 1.664317
-0.585799 0.361450 1.678740
-0.557711 0.368554 1.664317
-0.557711 0.357519 1.678740
-0.529623 0.365293 1.664317
-0.529623 0.353588 1.678740
-0.501535 0.362032 1.664317
-0.501535 0.349657 1.678740
-0.557711 0.346483 1.693164
-0.529623 0.341882 1.693164
-0.501535 0.337281 1.693164
-0.613887 0.355686 1.693164
-0.585799 0.351085 1.693164
-0.473447 0.358772 1.664317
-0.473447 0.345725 1.678740
-0.445359 0.355511 1.664317
-0.445359 0.341794 1.678740
-0.417271 0.352250 1.664317
-0.417271 0.337863 1.678740
-0.389183 0.348989 1.664317
-0.389183 0.333932 1.678740
-0.445359 0.328078 1.693164
-0.417271 0.323477 1.693164
-0.389183 0.318876 1.693164
-0.473447 0.332679 1.693164
-0.417271 0.488369 1.246041
-0.417271 0.484016 1.231618
-0.389183 0.463073 1.231618
-0.389183 0.469117 1.246041
-0.417271 0.492722 1.260465
-0.389183 0.475161 1.260465
-0.417271 0.497074 1.274888
-0.389183 0.481205 1.274888
-0.417271 0.501427 1.289311
-0.389183 0.487249 1.289311
-0.417271 0.505780 1.303735
-0.389183 0.493294 1.303735
-0.417271 0.433883 1.015269
-0.417271 0.430541 1.000845
-0.389183 0.426794 1.000845
-0.389183 0.429061 1.015269
-0.417271 0.437225 1.029692
-0.389183 0.431329 1.029692
-0.417271 0.440568 1.044115
-0.389183 0.433596 1.044115
-0.417271 0.443910 1.058539
-0.389183 0.435864 1.058539
-0.417271 0.447252 1.072962
-0.389183 0.438131 1.072962
-0.417271 0.450594 1.087385
-0.389183 0.440398 1.087385
-0.417271 0.453937 1.101808
-0.389183 0.442666 1.101808
-0.417271 0.457279 1.116232
-0.389183 0.444933 1.116232
-0.417271 0.460621 1.130655
-0.389183 0.447201 1.130655
-0.417271 0.463963 1.145078
-0.389183 0.449468 1.145078
-0.417271 0.467305 1.159502
-0.389183 0.451736 1.159502
-0.417271 0.470648 1.173925
-0.389183 0.454003 1.173925
-0.417271 0.473990 1.188348
-0.389183 0.456270 1.188348
-0.417271 0.477332 1.202771
-0.389183 0.458538 1.202771
-0.417271 0.480674 1.217195
-0.389183 0.460805 1.217195
-0.417271 0.484016 1.231618
-0.389183 0.463073 1.231618
-0.445359 0.507621 1.246041
-0.445359 0.504960 1.231618
-0.417271 0.488369 1.246041
-0.445359 0.510283 1.260465
-0.417271 0.492722 1.260465
-0.445359 0.512944 1.274888
-0.417271 0.497074 1.274888
-0.445359 0.515605 1.289311
-0.417271 0.501427 1.289311
-0.445359 0.518266 1.303735
-0.417271 0.505780 1.303735
-0.445359 0.500543 1.217195
-0.417271 0.480674 1.217195
-0.417271 0.477332 1.202771
-0.445359 0.496126 1.202771
-0.417271 0.484016 1.231618
-0.417271 0.473990 1.188348
-0.445359 0.491709 1.188348
-0.417271 0.470648 1.173925
-0.445359 0.487292 1.173925
-0.417271 0.467305 1.159502
-0.445359 0.482875 1.159502
-0.417271 0.463963 1.145078
-0.445359 0.478458 1.145078
-0.417271 0.460621 1.130655
-0.445359 0.474041 1.130655
-0.417271 0.457279 1.116232
-0.445359 0.469624 1.116232
-0.417271 0.453937 1.101808
-0.445359 0.465207 1.101808
-0.417271 0.450594 1.087385
-0.445359 0.460790 1.087385
-0.417271 0.447252 1.072962
-0.445359 0.456373 1.072962
-0.417271 0.443910 1.058539
-0.445359 0.451956 1.058539
-0.417271 0.440568 1.044115
-0.445359 0.447539 1.044115
-0.417271 0.437225 1.029692
-0.445359 0.443122 1.029692
-0.417271 0.433883 1.015269
-0.445359 0.438705 1.015269
-0.417271 0.430541 1.000845
-0.445359 0.434288 1.000845
-0.417271 0.343479 0.784496
-0.417271 0.337675 0.770073
-0.389183 0.334550 0.770073
-0.389183 0.340315 0.784496
-0.445359 0.346642 0.784496
-0.445359 0.340799 0.770073
-0.473447 0.349806 0.784496
-0.473447 0.343924 0.770073
-0.501535 0.352970 0.784496
-0.501535 0.347049 0.770073
-0.529623 0.356133 0.784496
-0.529623 0.350174 0.770073
-0.501535 0.358891 0.798919
-0.473447 0.355688 0.798919
-0.501535 0.364811 0.813343
-0.529623 0.368053 0.813343
-0.529623 0.362093 0.798919
-0.473447 0.361570 0.813343
-0.445359 0.352485 0.798919
-0.445359 0.358329 0.813343
-0.417271 0.349283 0.798919
-0.417271 0.355087 0.813343
-0.389183 0.346080 0.798919
-0.389183 0.351846 0.813343
-0.445359 0.364172 0.827766
-0.417271 0.360891 0.827766
-0.389183 0.357611 0.827766
-0.417271 0.366695 0.842189
-0.389183 0.363376 0.842189
-0.501535 0.370732 0.827766
-0.473447 0.367452 0.827766
-0.473447 0.373334 0.842189
-0.445359 0.370015 0.842189
-0.501535 0.376653 0.842189
-0.529623 0.379972 0.842189
-0.529623 0.374013 0.827766
-0.557711 0.377293 0.827766
-0.557711 0.371294 0.813343
-0.557711 0.365296 0.798919
-0.585799 0.374536 0.813343
-0.585799 0.368498 0.798919
-0.613887 0.377777 0.813343
-0.613887 0.371701 0.798919
-0.641975 0.381018 0.813343
-0.641975 0.374903 0.798919
-0.670064 0.384260 0.813343
-0.670064 0.378106 0.798919
-0.698152 0.387501 0.813343
-0.698152 0.381308 0.798919
-0.670064 0.390414 0.827766
-0.641975 0.387134 0.827766
-0.613887 0.383853 0.827766
-0.641975 0.393249 0.842189
-0.613887 0.389930 0.842189
-0.726240 0.390743 0.813343
-0.726240 0.384511 0.798919
-0.754328 0.393984 0.813343
-0.754328 0.387713 0.798919
-0.726240 0.396975 0.827766
-0.698152 0.393694 0.827766
-0.698152 0.399888 0.842189
-0.670064 0.396568 0.842189
-0.698152 0.375115 0.784496
-0.726240 0.378279 0.784496
-0.698152 0.368922 0.770073
-0.670064 0.365797 0.770073
-0.670064 0.371952 0.784496
-0.726240 0.372047 0.770073
-0.754328 0.381442 0.784496
-0.754328 0.375171 0.770073
-0.782416 0.397226 0.813343
-0.782416 0.403535 0.827766
-0.754328 0.400255 0.827766
-0.754328 0.406526 0.842189
-0.726240 0.403207 0.842189
-0.810504 0.406816 0.827766
-0.810504 0.413165 0.842189
-0.782416 0.409845 0.842189
-0.810504 0.400467 0.813343
-0.782416 0.390916 0.798919
-0.810504 0.394118 0.798919
-0.838592 0.403709 0.813343
-0.838592 0.397321 0.798919
-0.838592 0.410096 0.827766
-0.810504 0.387770 0.784496
-0.838592 0.390933 0.784496
-0.810504 0.381421 0.770073
-0.782416 0.378296 0.770073
-0.782416 0.384606 0.784496
-0.838592 0.384546 0.770073
-0.838592 0.416484 0.842189
-0.838592 0.422871 0.856613
-0.810504 0.419513 0.856613
-0.838592 0.429259 0.871036
-0.810504 0.425862 0.871036
-0.782416 0.416155 0.856613
-0.782416 0.422465 0.871036
-0.754328 0.412797 0.856613
-0.754328 0.419068 0.871036
-0.726240 0.409439 0.856613
-0.726240 0.415671 0.871036
-0.782416 0.428775 0.885459
-0.754328 0.425339 0.885459
-0.726240 0.421903 0.885459
-0.754328 0.431610 0.899882
-0.726240 0.428135 0.899882
-0.698152 0.418467 0.885459
-0.698152 0.424660 0.899882
-0.670064 0.415031 0.885459
-0.670064 0.421185 0.899882
-0.726240 0.434367 0.914306
-0.698152 0.430853 0.914306
-0.726240 0.440599 0.928729
-0.754328 0.444152 0.928729
-0.754328 0.437881 0.914306
-0.698152 0.437046 0.928729
-0.670064 0.427340 0.914306
-0.670064 0.433494 0.928729
-0.641975 0.423826 0.914306
-0.641975 0.429941 0.928729
-0.613887 0.420312 0.914306
-0.613887 0.426389 0.928729
-0.670064 0.439648 0.943152
-0.641975 0.436056 0.943152
-0.613887 0.432465 0.943152
-0.641975 0.442172 0.957576
-0.613887 0.438541 0.957576
-0.726240 0.446831 0.943152
-0.698152 0.443240 0.943152
-0.698152 0.449433 0.957576
-0.670064 0.445802 0.957576
-0.585799 0.416799 0.914306
-0.585799 0.422836 0.928729
-0.557711 0.413285 0.914306
-0.557711 0.419283 0.928729
-0.529623 0.409771 0.914306
-0.529623 0.415731 0.928729
-0.501535 0.406257 0.914306
-0.501535 0.412178 0.928729
-0.473447 0.402744 0.914306
-0.473447 0.408626 0.928729
-0.445359 0.399230 0.914306
-0.445359 0.405073 0.928729
-0.417271 0.395716 0.914306
-0.417271 0.401520 0.928729
-0.389183 0.392202 0.914306
-0.389183 0.397968 0.928729
-0.445359 0.410916 0.943152
-0.417271 0.407324 0.943152
-0.389183 0.403733 0.943152
-0.417271 0.413129 0.957576
-0.389183 0.409498 0.957576
-0.501535 0.418099 0.943152
-0.473447 0.414507 0.943152
-0.473447 0.420389 0.957576
-0.445359 0.416759 0.957576
-0.501535 0.424020 0.957576
-0.529623 0.427650 0.957576
-0.529623 0.421691 0.943152
-0.557711 0.425282 0.943152
-0.585799 0.428874 0.943152
-0.585799 0.434911 0.957576
-0.557711 0.431281 0.957576
-0.613887 0.444618 0.971999
-0.585799 0.440949 0.971999
-0.613887 0.450694 0.986422
-0.641975 0.454403 0.986422
-0.641975 0.448287 0.971999
-0.585799 0.446986 0.986422
-0.557711 0.437279 0.971999
-0.557711 0.443278 0.986422
-0.529623 0.433610 0.971999
-0.529623 0.439570 0.986422
-0.501535 0.429941 0.971999
-0.501535 0.435861 0.986422
-0.557711 0.449277 1.000845
-0.529623 0.445529 1.000845
-0.501535 0.441782 1.000845
-0.613887 0.456771 1.000845
-0.585799 0.453024 1.000845
-0.473447 0.426271 0.971999
-0.473447 0.432153 0.986422
-0.445359 0.422602 0.971999
-0.445359 0.428445 0.986422
-0.417271 0.418933 0.971999
-0.417271 0.424737 0.986422
-0.389183 0.415263 0.971999
-0.389183 0.421029 0.986422
-0.445359 0.434288 1.000845
-0.417271 0.430541 1.000845
-0.389183 0.426794 1.000845
-0.473447 0.438035 1.000845
-0.501535 0.448349 1.015269
-0.473447 0.443527 1.015269
-0.501535 0.454916 1.029692
-0.473447 0.449019 1.029692
-0.501535 0.461482 1.044115
-0.473447 0.454511 1.044115
-0.501535 0.468049 1.058539
-0.473447 0.460002 1.058539
-0.501535 0.474615 1.072962
-0.473447 0.465494 1.072962
-0.501535 0.481182 1.087385
-0.473447 0.470986 1.087385
-0.501535 0.487749 1.101808
-0.473447 0.476478 1.101808
-0.501535 0.494315 1.116232
-0.473447 0.481970 1.116232
-0.501535 0.500882 1.130655
-0.473447 0.487462 1.130655
-0.501535 0.507448 1.145078
-0.473447 0.492953 1.145078
-0.501535 0.514015 1.159502
-0.473447 0.498445 1.159502
-0.501535 0.520582 1.173925
-0.473447 0.503937 1.173925
-0.501535 0.527148 1.188348
-0.473447 0.509429 1.188348
-0.501535 0.533715 1.202771
-0.473447 0.514921 1.202771
-0.501535 0.540282 1.217195
-0.473447 0.520413 1.217195
-0.501535 0.546848 1.231618
-0.473447 0.525904 1.231618
-0.417271 0.543419 0.553723
-0.417271 0.557135 0.539300
-0.389183 0.556399 0.539300
-0.389183 0.542534 0.553723
-0.445359 0.544304 0.553723
-0.445359 0.557871 0.539300
-0.473447 0.545189 0.553723
-0.473447 0.558607 0.539300
-0.501535 0.546074 0.553723
-0.501535 0.559342 0.539300
-0.529623 0.546959 0.553723
-0.529623 0.560078 0.539300
-0.501535 0.532806 0.568147
-0.473447 0.531771 0.568147
-0.501535 0.519537 0.582570
-0.529623 0.520721 0.582570
-0.529623 0.533840 0.568147
-0.473447 0.518354 0.582570
-0.445359 0.530737 0.568147
-0.445359 0.517170 0.582570
-0.417271 0.529703 0.568147
-0.417271 0.515986 0.582570
-0.389183 0.528668 0.568147
-0.389183 0.514803 0.582570
-0.445359 0.503603 0.596993
-0.417271 0.502270 0.596993
-0.389183 0.500937 0.596993
-0.417271 0.488554 0.611416
-0.389183 0.487071 0.611416
-0.501535 0.506269 0.596993
-0.473447 0.504936 0.596993
-0.473447 0.491518 0.611417
-0.445359 0.490036 0.611417
-0.361095 0.498909 0.596993
-0.361095 0.487417 0.611416
-0.501535 0.493001 0.611417
-0.529623 0.494483 0.611417
-0.529623 0.507602 0.596993
-0.557711 0.508935 0.596993
-0.557711 0.521905 0.582570
-0.557711 0.534874 0.568147
-0.585799 0.523089 0.582570
-0.585799 0.535909 0.568147
-0.613888 0.524272 0.582570
-0.613888 0.536943 0.568147
-0.641976 0.525456 0.582570
-0.641976 0.537978 0.568147
-0.670064 0.526640 0.582570
-0.670064 0.539012 0.568147
-0.698152 0.527824 0.582570
-0.698152 0.540047 0.568147
-0.670064 0.514267 0.596993
-0.641976 0.512934 0.596993
-0.613888 0.511601 0.596993
-0.641976 0.500412 0.611417
-0.613888 0.498930 0.611417
-0.726240 0.529007 0.582570
-0.726240 0.541081 0.568147
-0.754328 0.530191 0.582570
-0.754328 0.542115 0.568147
-0.726240 0.516933 0.596993
-0.698152 0.515600 0.596993
-0.698152 0.503377 0.611417
-0.670064 0.501895 0.611417
-0.698152 0.552270 0.553723
-0.726240 0.553155 0.553723
-0.698152 0.564493 0.539300
-0.670064 0.563757 0.539300
-0.670064 0.551385 0.553723
-0.726240 0.565229 0.539300
-0.754328 0.554040 0.553723
-0.754328 0.565965 0.539300
-0.782416 0.531375 0.582570
-0.782416 0.519599 0.596993
-0.754328 0.518266 0.596993
-0.754328 0.506342 0.611417
-0.726240 0.504859 0.611417
-0.810504 0.520932 0.596993
-0.810504 0.509306 0.611417
-0.782416 0.507824 0.611417
-0.810504 0.532558 0.582570
-0.782416 0.543150 0.568147
-0.810504 0.544184 0.568147
-0.838592 0.533742 0.582570
-0.838592 0.545219 0.568147
-0.838592 0.522265 0.596993
-0.810504 0.555810 0.553723
-0.838592 0.556695 0.553723
-0.810504 0.567436 0.539300
-0.782416 0.566700 0.539300
-0.782416 0.554925 0.553723
-0.838592 0.568172 0.539300
-0.838592 0.510789 0.611417
-0.838592 0.499312 0.625840
-0.810504 0.497680 0.625840
-0.810504 0.486054 0.640263
-0.782416 0.496049 0.625840
-0.782416 0.484273 0.640263
-0.754328 0.494417 0.625840
-0.754328 0.482493 0.640263
-0.726240 0.492786 0.625840
-0.726240 0.480712 0.640263
-0.754328 0.470568 0.654686
-0.726240 0.468638 0.654686
-0.754328 0.458643 0.669110
-0.726240 0.456564 0.669110
-0.698152 0.466708 0.654686
-0.698152 0.454484 0.669110
-0.670064 0.464777 0.654686
-0.670064 0.452405 0.669110
-0.698152 0.491154 0.625840
-0.698152 0.478931 0.640263
-0.670064 0.489522 0.625840
-0.670064 0.477150 0.640263
-0.641976 0.487891 0.625840
-0.641976 0.475369 0.640263
-0.613888 0.486259 0.625840
-0.613888 0.473588 0.640263
-0.641976 0.462847 0.654686
-0.613888 0.460917 0.654686
-0.641976 0.450325 0.669110
-0.613888 0.448246 0.669110
-0.585799 0.458986 0.654686
-0.585799 0.446166 0.669110
-0.557711 0.457056 0.654686
-0.557711 0.444086 0.669110
-0.585799 0.484627 0.625840
-0.585799 0.471807 0.640263
-0.557711 0.482996 0.625840
-0.557711 0.470026 0.640263
-0.529623 0.481364 0.625840
-0.529623 0.468245 0.640263
-0.501535 0.479732 0.625840
-0.501535 0.466464 0.640263
-0.529623 0.455126 0.654686
-0.501535 0.453196 0.654686
-0.529623 0.442007 0.669110
-0.501535 0.439927 0.669110
-0.473447 0.451265 0.654686
-0.473447 0.437848 0.669110
-0.445359 0.449335 0.654686
-0.445359 0.435768 0.669110
-0.473447 0.478101 0.625840
-0.473447 0.464683 0.640263
-0.445359 0.476469 0.625840
-0.445359 0.462902 0.640263
-0.417271 0.474837 0.625840
-0.417271 0.461121 0.640263
-0.389183 0.473206 0.625840
-0.389183 0.459340 0.640263
-0.417271 0.447405 0.654686
-0.389183 0.445475 0.654686
-0.417271 0.433689 0.669110
-0.389183 0.431609 0.669110
-0.557711 0.495965 0.611417
-0.585799 0.497448 0.611417
-0.585799 0.510268 0.596993
0.032138 0.727938 1.476814
0.032137 0.747666 1.462391
0.060226 0.760192 1.462391
0.060226 0.740153 1.476814
0.004049 0.715724 1.476814
0.004049 0.735140 1.462391
-0.024039 0.703510 1.476814
-0.024039 0.722615 1.462391
-0.052127 0.691295 1.476814
-0.052127 0.710089 1.462391
-0.080215 0.679081 1.476814
-0.080215 0.697563 1.462391
-0.052127 0.672502 1.491237
-0.024039 0.684405 1.491237
-0.052127 0.653708 1.505661
-0.080215 0.642117 1.505661
-0.080215 0.660599 1.491237
-0.024039 0.665300 1.505661
0.004049 0.696308 1.491237
0.004049 0.676891 1.505661
0.032138 0.708211 1.491237
0.032138 0.688483 1.505661
0.060226 0.720113 1.491237
0.060226 0.700074 1.505661
0.004049 0.657475 1.520084
0.032138 0.668755 1.520084
0.060226 0.680035 1.520084
0.032138 0.649027 1.534507
0.060226 0.659996 1.534507
-0.052127 0.634915 1.520084
-0.024039 0.646195 1.520084
-0.024039 0.627090 1.534507
0.004049 0.638059 1.534507
-0.052127 0.616121 1.534507
-0.080215 0.605153 1.534507
-0.080215 0.623635 1.520084
-0.108303 0.612355 1.520084
-0.108303 0.630525 1.505661
-0.108303 0.648696 1.491237
-0.136391 0.618934 1.505661
-0.136391 0.636793 1.491237
-0.164479 0.607342 1.505661
-0.164479 0.624890 1.491237
-0.192567 0.595751 1.505661
-0.192567 0.612987 1.491237
-0.220655 0.584159 1.505661
-0.220655 0.601084 1.491237
-0.248743 0.572568 1.505661
-0.248743 0.589182 1.491237
-0.220655 0.567234 1.520084
-0.192567 0.578515 1.520084
-0.164479 0.589795 1.520084
-0.192567 0.561278 1.534507
-0.164479 0.572247 1.534507
-0.276831 0.560977 1.505661
-0.276831 0.577279 1.491237
-0.304919 0.549385 1.505661
-0.304919 0.565376 1.491237
-0.276831 0.544674 1.520084
-0.248743 0.555954 1.520084
-0.248743 0.539341 1.534507
-0.220655 0.550309 1.534507
-0.248743 0.605795 1.476814
-0.276831 0.593581 1.476814
-0.248743 0.622409 1.462391
-0.220655 0.634934 1.462391
-0.220655 0.618010 1.476814
-0.276831 0.609883 1.462391
-0.304919 0.581367 1.476814
-0.304919 0.597357 1.462391
-0.333007 0.537793 1.505661
-0.333007 0.522114 1.520084
-0.304919 0.533394 1.520084
-0.304919 0.517403 1.534507
-0.276831 0.528372 1.534507
-0.361095 0.510834 1.520084
-0.361095 0.495466 1.534507
-0.333007 0.506435 1.534507
-0.361095 0.526202 1.505661
-0.333007 0.553473 1.491237
-0.361095 0.541570 1.491237
-0.389183 0.514611 1.505661
-0.389183 0.529667 1.491237
-0.389183 0.499554 1.520084
-0.361095 0.556938 1.476814
-0.389183 0.544724 1.476814
-0.361095 0.572306 1.462391
-0.333007 0.584832 1.462391
-0.333007 0.569152 1.476814
-0.389183 0.559780 1.462391
-0.389183 0.484497 1.534507
-0.389183 0.469441 1.548931
-0.361095 0.480098 1.548931
-0.389183 0.454384 1.563354
-0.361095 0.464730 1.563354
-0.333007 0.490755 1.548931
-0.333007 0.475076 1.563354
-0.304919 0.501413 1.548931
-0.304919 0.485422 1.563354
-0.276831 0.512070 1.548931
-0.276831 0.495768 1.563354
-0.333007 0.459397 1.577777
-0.304919 0.469431 1.577777
-0.276831 0.479466 1.577777
-0.304919 0.453440 1.592201
-0.276831 0.463163 1.592201
-0.248743 0.489500 1.577777
-0.248743 0.472886 1.592201
-0.220655 0.499534 1.577777
-0.220655 0.482609 1.592201
-0.276831 0.446861 1.606624
-0.248743 0.456273 1.606624
-0.276831 0.430559 1.621047
-0.304919 0.421459 1.621047
-0.304919 0.437450 1.606624
-0.248743 0.439659 1.621047
-0.220655 0.465684 1.606624
-0.220655 0.448759 1.621047
-0.192567 0.475096 1.606624
-0.192567 0.457860 1.621047
-0.164479 0.484508 1.606624
-0.164479 0.466960 1.621047
-0.220655 0.431834 1.635470
-0.192567 0.440623 1.635470
-0.164479 0.449412 1.635470
-0.192567 0.423387 1.649894
-0.164479 0.431864 1.649894
-0.276831 0.414257 1.635470
-0.248743 0.423046 1.635470
-0.248743 0.406432 1.649894
-0.220655 0.414909 1.649894
-0.136391 0.493919 1.606624
-0.136391 0.476060 1.621047
-0.108303 0.503331 1.606624
-0.108303 0.485160 1.621047
-0.080215 0.512742 1.606624
-0.080215 0.494260 1.621047
-0.052127 0.522154 1.606624
-0.052127 0.503360 1.621047
-0.024039 0.531565 1.606624
-0.024039 0.512461 1.621047
0.004049 0.540977 1.606624
0.004049 0.521561 1.621047
0.032138 0.550389 1.606624
0.032138 0.530661 1.621047
0.060226 0.559800 1.606624
0.060226 0.539761 1.621047
0.004049 0.502145 1.635470
0.032138 0.510933 1.635470
0.060226 0.519722 1.635470
0.032138 0.491206 1.649894
0.060226 0.499683 1.649894
-0.052127 0.484567 1.635470
-0.024039 0.493356 1.635470
-0.024039 0.474251 1.649894
0.004049 0.482728 1.649894
-0.052127 0.465774 1.649894
-0.080215 0.457296 1.649894
-0.080215 0.475778 1.635470
-0.108303 0.466989 1.635470
-0.136391 0.458201 1.635470
-0.136391 0.440342 1.649894
-0.108303 0.448819 1.649894
-0.164479 0.414316 1.664317
-0.136391 0.422482 1.664317
-0.164479 0.396768 1.678740
-0.192567 0.388914 1.678740
-0.192567 0.406150 1.664317
-0.136391 0.404623 1.678740
-0.108303 0.430648 1.664317
-0.108303 0.412477 1.678740
-0.080215 0.438814 1.664317
-0.080215 0.420332 1.678740
-0.052127 0.446980 1.664317
-0.052127 0.428186 1.678740
-0.108303 0.394307 1.693164
-0.080215 0.401850 1.693164
-0.052127 0.409393 1.693164
-0.164479 0.379221 1.693164
-0.136391 0.386764 1.693164
-0.024039 0.455146 1.664317
-0.024039 0.436041 1.678740
0.004049 0.463312 1.664317
0.004049 0.443896 1.678740
0.032138 0.471478 1.664317
0.032138 0.451750 1.678740
0.060226 0.479644 1.664317
0.060226 0.459605 1.678740
0.004049 0.424479 1.693164
0.032138 0.432022 1.693164
0.060226 0.439565 1.693164
-0.024039 0.416936 1.693164
0.060226 0.459605 1.678740
0.088314 0.464408 1.678740
0.088314 0.446132 1.693164
0.116402 0.469212 1.678740
0.116402 0.452699 1.693164
0.088314 0.464408 1.678740
0.116402 0.485724 1.664317
0.088314 0.482684 1.664317
0.060226 0.479644 1.664317
0.060226 0.499683 1.649894
0.088314 0.500960 1.649894
0.088314 0.482684 1.664317
0.116402 0.502237 1.649894
0.088314 0.500960 1.649894
0.116402 0.518749 1.635470
0.088314 0.519236 1.635470
0.088314 0.519236 1.635470
0.116402 0.535262 1.621047
0.088314 0.537511 1.621047
0.060226 0.519722 1.635470
0.060226 0.539761 1.621047
0.088314 0.537511 1.621047
0.116402 0.551774 1.606624
0.088314 0.555787 1.606624
0.060226 0.559800 1.606624
0.060226 0.579839 1.592201
0.088314 0.574063 1.592201
0.088314 0.555787 1.606624
0.116402 0.568287 1.592201
0.088314 0.574063 1.592201
0.116402 0.584799 1.577777
0.088314 0.592339 1.577777
0.060226 0.599879 1.577777
0.060226 0.619918 1.563354
0.088314 0.610615 1.563354
0.088314 0.592339 1.577777
0.116402 0.601311 1.563354
0.088314 0.610615 1.563354
0.116402 0.617824 1.548931
0.088314 0.628890 1.548931
0.060226 0.639957 1.548931
0.060226 0.659996 1.534507
0.088314 0.647166 1.534507
0.088314 0.628890 1.548931
0.116402 0.634336 1.534507
0.088314 0.647166 1.534507
0.116402 0.650849 1.520084
0.088314 0.665442 1.520084
0.088314 0.665442 1.520084
0.116402 0.667361 1.505661
0.088314 0.683718 1.505661
0.060226 0.680035 1.520084
0.060226 0.700074 1.505661
0.088314 0.701994 1.491237
0.060226 0.720113 1.491237
0.088314 0.720269 1.476814
0.060226 0.740153 1.476814
0.088314 0.738545 1.462391
0.060226 0.760192 1.462391
0.088314 0.683718 1.505661
0.116402 0.683874 1.491237
0.088314 0.701994 1.491237
0.116402 0.700386 1.476814
0.088314 0.720269 1.476814
0.116402 0.716899 1.462391
0.088314 0.738545 1.462391
0.032137 0.615133 1.246041
0.032137 0.606297 1.231618
0.060225 0.615846 1.231618
0.060225 0.624867 1.246041
0.004049 0.605399 1.246041
0.004049 0.596749 1.231618
-0.024039 0.595664 1.246041
-0.024039 0.587201 1.231618
-0.052127 0.585930 1.246041
-0.052127 0.577652 1.231618
-0.080215 0.576195 1.246041
-0.080215 0.568104 1.231618
-0.052127 0.594207 1.260465
-0.024039 0.604127 1.260465
-0.052127 0.602484 1.274888
-0.080215 0.592378 1.274888
-0.080215 0.584287 1.260465
-0.024039 0.612591 1.274888
0.004049 0.614048 1.260465
0.004049 0.622697 1.274888
0.032137 0.623969 1.260465
0.032137 0.632804 1.274888
0.060225 0.633889 1.260465
0.060225 0.642911 1.274888
0.004049 0.631347 1.289311
0.032137 0.641640 1.289311
0.060225 0.651932 1.289311
0.032137 0.650475 1.303734
0.060225 0.660954 1.303734
-0.052127 0.610762 1.289311
-0.024039 0.621054 1.289311
-0.024039 0.629518 1.303734
0.004049 0.639996 1.303734
-0.052127 0.619039 1.303734
-0.080215 0.608560 1.303735
-0.080215 0.600469 1.289311
-0.108303 0.590176 1.289311
-0.108303 0.582271 1.274888
-0.108303 0.574366 1.260465
-0.136391 0.572164 1.274888
-0.136391 0.564445 1.260465
-0.164479 0.562058 1.274888
-0.164479 0.554525 1.260465
-0.192567 0.551951 1.274888
-0.192567 0.544604 1.260465
-0.220655 0.541845 1.274888
-0.220655 0.534684 1.260465
-0.248743 0.531738 1.274888
-0.248743 0.524764 1.260465
-0.220655 0.549006 1.289311
-0.192567 0.559298 1.289311
-0.164479 0.569591 1.289311
-0.192567 0.566645 1.303735
-0.164479 0.577124 1.303735
-0.276831 0.521632 1.274888
-0.276831 0.514843 1.260465
-0.304919 0.511525 1.274888
-0.304919 0.504922 1.260465
-0.276831 0.528420 1.289311
-0.248743 0.538713 1.289311
-0.248743 0.545687 1.303735
-0.220655 0.556166 1.303735
-0.248743 0.517789 1.246041
-0.276831 0.508054 1.246041
-0.248743 0.510814 1.231618
-0.220655 0.520362 1.231618
-0.220655 0.527523 1.246041
-0.276831 0.501266 1.231618
-0.304919 0.498320 1.246041
-0.304919 0.491718 1.231618
-0.333007 0.501418 1.274888
-0.333007 0.507835 1.289311
-0.304919 0.518127 1.289311
-0.304919 0.524730 1.303735
-0.276831 0.535209 1.303735
-0.361095 0.497542 1.289311
-0.361095 0.503772 1.303735
-0.333007 0.514251 1.303735
-0.361095 0.491312 1.274888
-0.333007 0.495002 1.260465
-0.361095 0.485081 1.260465
-0.389183 0.481205 1.274888
-0.389183 0.475161 1.260465
-0.389183 0.487249 1.289311
-0.361095 0.478851 1.246041
-0.389183 0.469117 1.246041
-0.361095 0.472621 1.231618
-0.333007 0.482169 1.231618
-0.333007 0.488586 1.246041
-0.389183 0.463073 1.231618
-0.389183 0.493294 1.303735
-0.389183 0.499338 1.318158
-0.361095 0.510003 1.318158
-0.389183 0.505382 1.332581
-0.361095 0.516233 1.332581
-0.333007 0.520668 1.318158
-0.333007 0.527084 1.332581
-0.304919 0.531332 1.318158
-0.304919 0.537935 1.332581
-0.276831 0.541997 1.318158
-0.276831 0.548786 1.332581
-0.333007 0.533500 1.347004
-0.304919 0.544537 1.347004
-0.276831 0.555574 1.347004
-0.304919 0.551140 1.361428
-0.276831 0.562363 1.361428
-0.248743 0.566611 1.347004
-0.248743 0.573586 1.361428
-0.220655 0.577649 1.347004
-0.220655 0.584809 1.361428
-0.276831 0.569152 1.375851
-0.248743 0.580561 1.375851
-0.276831 0.575940 1.390274
-0.304919 0.564345 1.390274
-0.304919 0.557742 1.375851
-0.248743 0.587535 1.390274
-0.220655 0.591970 1.375851
-0.220655 0.599131 1.390274
-0.192567 0.603379 1.375851
-0.192567 0.610726 1.390274
-0.164479 0.614788 1.375851
-0.164479 0.622321 1.390274
-0.220655 0.606292 1.404698
-0.192567 0.618073 1.404698
-0.164479 0.629854 1.404698
-0.192567 0.625420 1.419121
-0.164479 0.637387 1.419121
-0.276831 0.582729 1.404698
-0.248743 0.594510 1.404698
-0.248743 0.601485 1.419121
-0.220655 0.613452 1.419121
-0.136391 0.626198 1.375851
-0.136391 0.633917 1.390274
-0.108303 0.637607 1.375851
-0.108303 0.645512 1.390274
-0.080215 0.649016 1.375851
-0.080215 0.657107 1.390274
-0.052127 0.660425 1.375851
-0.052127 0.668702 1.390274
-0.024039 0.671834 1.375851
-0.024039 0.680298 1.390274
0.004049 0.683244 1.375851
0.004049 0.691893 1.390274
0.032137 0.694653 1.375851
0.032137 0.703488 1.390274
0.060225 0.706062 1.375851
0.060225 0.715084 1.390274
0.004049 0.700543 1.404698
0.032137 0.712324 1.404698
0.060225 0.724105 1.404698
0.032137 0.721159 1.419121
0.060225 0.733127 1.419121
-0.052127 0.676980 1.404698
-0.024039 0.688761 1.404698
-0.024039 0.697224 1.419121
0.004049 0.709192 1.419121
-0.052127 0.685257 1.419121
-0.080215 0.673290 1.419121
-0.080215 0.665198 1.404698
-0.108303 0.653417 1.404698
-0.136391 0.641636 1.404698
-0.136391 0.649355 1.419121
-0.108303 0.661322 1.419121
-0.164479 0.644920 1.433544
-0.136391 0.657074 1.433544
-0.164479 0.652453 1.447968
-0.192567 0.640113 1.447968
-0.192567 0.632767 1.433544
-0.136391 0.664793 1.447968
-0.108303 0.669227 1.433544
-0.108303 0.677132 1.447968
-0.080215 0.681381 1.433544
-0.080215 0.689472 1.447968
-0.052127 0.693534 1.433544
-0.052127 0.701812 1.447968
-0.108303 0.685037 1.462391
-0.080215 0.697563 1.462391
-0.052127 0.710089 1.462391
-0.164479 0.659986 1.462391
-0.136391 0.672512 1.462391
-0.024039 0.705688 1.433544
-0.024039 0.714151 1.447968
0.004049 0.717841 1.433544
0.004049 0.726491 1.447968
0.032137 0.729995 1.433544
0.032137 0.738831 1.447968
0.060225 0.742148 1.433544
0.060225 0.751170 1.447967
0.004049 0.735140 1.462391
0.032137 0.747666 1.462391
0.060226 0.760192 1.462391
-0.024039 0.722615 1.462391
0.032137 0.683586 1.015269
0.032137 0.688739 1.000845
0.060225 0.706201 1.000845
0.060225 0.700554 1.015269
0.004049 0.666618 1.015269
0.004049 0.671276 1.000845
-0.024039 0.649649 1.015269
-0.024039 0.653813 1.000845
-0.052127 0.632681 1.015269
-0.052127 0.636350 1.000845
-0.080215 0.615713 1.015269
-0.080215 0.618887 1.000845
-0.052127 0.629012 1.029692
-0.024039 0.645486 1.029692
-0.052127 0.625344 1.044115
-0.080215 0.609365 1.044115
-0.080215 0.612539 1.029692
-0.024039 0.641323 1.044115
0.004049 0.661960 1.029692
0.004049 0.657302 1.044115
0.032137 0.678433 1.029692
0.032137 0.673281 1.044115
0.060225 0.694907 1.029692
0.060225 0.689260 1.044115
0.004049 0.652644 1.058538
0.032137 0.668128 1.058538
0.060225 0.683613 1.058538
0.032137 0.662976 1.072962
0.060225 0.677965 1.072962
-0.052127 0.621675 1.058538
-0.024039 0.637160 1.058538
-0.024039 0.632996 1.072962
0.004049 0.647986 1.072962
-0.052127 0.618007 1.072962
-0.080215 0.603017 1.072962
-0.080215 0.606191 1.058539
-0.108303 0.590707 1.058539
-0.108303 0.593386 1.044115
-0.108303 0.596065 1.029692
-0.136391 0.577407 1.044115
-0.136391 0.579592 1.029692
-0.164479 0.561428 1.044115
-0.164479 0.563118 1.029692
-0.192567 0.545449 1.044115
-0.192567 0.546644 1.029692
-0.220655 0.529470 1.044115
-0.220655 0.530170 1.029692
-0.248743 0.513491 1.044115
-0.248743 0.513697 1.029692
-0.220655 0.528769 1.058539
-0.192567 0.544254 1.058539
-0.164479 0.559738 1.058539
-0.192567 0.543058 1.072962
-0.164479 0.558048 1.072962
-0.276831 0.497512 1.044115
-0.276831 0.497223 1.029692
-0.304919 0.481533 1.044115
-0.304919 0.480750 1.029692
-0.276831 0.497801 1.058539
-0.248743 0.513285 1.058539
