# .PCD v.7 - Point Cloud Data file format
VERSION .7
FIELDS x y z
SIZE 4 4 4
TYPE F F F
COUNT 1 1 1
WIDTH 1682
HEIGHT 1
POINTS 1682
DATA ascii
1.015131 -0.285347 1.222194
1.043219 -0.258096 1.207771
1.015131 -0.270154 1.207771
1.043219 -0.243879 1.193348
1.015131 -0.254960 1.193348
1.043219 -0.229662 1.178924
1.015131 -0.239766 1.178924
0.987043 -0.282211 1.207771
0.987043 -0.266041 1.193348
0.987043 -0.249871 1.178924
0.987043 -0.314551 1.236617
0.987043 -0.298381 1.222194
1.043219 -0.215445 1.164501
1.015131 -0.224573 1.164501
1.043219 -0.201228 1.150078
1.015131 -0.209379 1.150078
0.987043 -0.217531 1.150078
0.987043 -0.201361 1.135654
0.987043 -0.233701 1.164501
1.071307 -0.193077 1.150078
1.071307 -0.206317 1.164501
1.099395 -0.197190 1.164501
1.071307 -0.219558 1.178924
1.071307 -0.232798 1.193348
1.099395 -0.221718 1.193348
1.071307 -0.246039 1.207771
1.183659 -0.207333 1.366427
1.211747 -0.200827 1.366427
1.211747 -0.201010 1.352004
1.183659 -0.208349 1.352004
1.211747 -0.201192 1.337580
1.183659 -0.209366 1.337580
1.211747 -0.201374 1.323157
1.183659 -0.210382 1.323157
1.211747 -0.201557 1.308734
1.183659 -0.211398 1.308734
1.211747 -0.201739 1.294310
1.183659 -0.212414 1.294310
1.211747 -0.201922 1.279887
1.183659 -0.213430 1.279887
1.211747 -0.202104 1.265464
1.183659 -0.214447 1.265464
1.211747 -0.202286 1.251041
1.183659 -0.215463 1.251041
1.211747 -0.202469 1.236617
1.183659 -0.216479 1.236617
1.408364 -0.167625 1.597200
1.436452 -0.163316 1.597200
1.436452 -0.166747 1.582776
1.408364 -0.170652 1.582776
1.436452 -0.170178 1.568353
1.408364 -0.173679 1.568353
1.436452 -0.173609 1.553930
1.408364 -0.176705 1.553930
1.183659 -0.202102 1.597200
1.211747 -0.197792 1.597200
1.211747 -0.197988 1.582776
1.183659 -0.201893 1.582776
1.211747 -0.198183 1.568353
1.183659 -0.201684 1.568353
1.211747 -0.198378 1.553930
1.183659 -0.201475 1.553930
1.239835 -0.194083 1.582776
1.239835 -0.193483 1.597200
1.267923 -0.190178 1.582776
1.267923 -0.189173 1.597200
1.239835 -0.192883 1.611623
1.267923 -0.188169 1.611623
1.239835 -0.192283 1.626046
1.267923 -0.187165 1.626046
1.296011 -0.187681 1.568353
1.324100 -0.184180 1.568353
1.296011 -0.189090 1.553930
1.267923 -0.191182 1.568353
1.239835 -0.194682 1.568353
1.267923 -0.192186 1.553930
1.239835 -0.195282 1.553930
1.267923 -0.193190 1.539506
1.239835 -0.195882 1.539507
1.267923 -0.194195 1.525083
1.239835 -0.196482 1.525083
1.211747 -0.198574 1.539507
1.211747 -0.198769 1.525083
1.183659 -0.201265 1.539507
1.183659 -0.201056 1.525083
1.211747 -0.198964 1.510660
1.183659 -0.200847 1.510660
1.211747 -0.199160 1.496237
1.183659 -0.200638 1.496237
1.267923 -0.195199 1.510660
1.239835 -0.197082 1.510660
1.267923 -0.196203 1.496237
1.239835 -0.197681 1.496237
1.267923 -0.197207 1.481813
1.239835 -0.198281 1.481813
1.267923 -0.198211 1.467390
1.239835 -0.198881 1.467390
1.211747 -0.199355 1.481813
1.239835 -0.198881 1.467390
1.211747 -0.199550 1.467390
1.183659 -0.200429 1.481813
1.183659 -0.200220 1.467390
1.211747 -0.199733 1.452967
1.183659 -0.201236 1.452967
1.211747 -0.199915 1.438543
1.183659 -0.202252 1.438543
1.239835 -0.198230 1.452967
1.211747 -0.199733 1.452967
1.239835 -0.197578 1.438543
1.211747 -0.199915 1.438543
1.239835 -0.196927 1.424120
1.211747 -0.200098 1.424120
1.239835 -0.196275 1.409697
1.211747 -0.200280 1.409697
1.239835 -0.195624 1.395274
1.211747 -0.200462 1.395274
1.239835 -0.194972 1.380850
1.211747 -0.200645 1.380850
1.239835 -0.194321 1.366427
1.211747 -0.200827 1.366427
1.239835 -0.193670 1.352004
1.211747 -0.201010 1.352004
1.239835 -0.193018 1.337580
1.211747 -0.201192 1.337580
1.239835 -0.192367 1.323157
1.211747 -0.201374 1.323157
1.239835 -0.191715 1.308734
1.211747 -0.201557 1.308734
1.239835 -0.191064 1.294310
1.211747 -0.201739 1.294310
1.239835 -0.190413 1.279887
1.211747 -0.201922 1.279887
1.239835 -0.189761 1.265464
1.211747 -0.202104 1.265464
1.239835 -0.189110 1.251041
1.211747 -0.202286 1.251041
1.239835 -0.188458 1.236617
1.211747 -0.202469 1.236617
1.408363 -0.176571 0.443336
1.436451 -0.179567 0.443336
1.436451 -0.200503 0.428913
1.408363 -0.194597 0.428913
1.183659 -0.152596 0.443336
1.211747 -0.155593 0.443336
1.211747 -0.153252 0.428913
1.183659 -0.147346 0.428913
1.183658 -0.110596 0.327950
1.211746 -0.136869 0.327950
1.211746 -0.134529 0.313526
1.183658 -0.105347 0.313526
-0.080303 -0.620000 0.400067
-0.080303 -0.620000 0.313527
0.088225 -0.620000 0.313527
0.088225 -0.620000 0.400067
0.256754 -0.620000 0.313527
0.256754 -0.620000 0.400067
0.425282 -0.620000 0.313527
0.425282 -0.620000 0.400067
-0.080303 -0.620000 1.092385
-0.080303 -0.620000 1.005845
0.088225 -0.620000 1.005845
0.088225 -0.620000 1.092385
0.256754 -0.620000 1.005845
0.256754 -0.620000 1.092385
0.425282 -0.620000 1.005845
0.425282 -0.620000 1.092385
0.088225 -0.620000 0.919306
-0.080303 -0.620000 0.919306
0.088225 -0.620000 0.832766
-0.080303 -0.620000 0.832766
-0.248831 -0.620000 0.919306
-0.248831 -0.620000 0.832766
-0.417359 -0.620000 0.919306
-0.417359 -0.620000 0.832766
0.256754 -0.620000 0.746226
0.256754 -0.620000 0.659686
0.425282 -0.620000 0.746226
0.256754 -0.620000 0.832766
0.256754 -0.620000 0.919306
0.425282 -0.620000 0.832766
0.425282 -0.620000 0.919306
0.593810 -0.620000 0.832766
0.593810 -0.620000 0.919306
0.762338 -0.620000 0.832766
0.762338 -0.620000 0.919306
0.593810 -0.620000 1.005845
0.762338 -0.620000 1.005845
0.593810 -0.620000 1.092385
0.762338 -0.620000 1.092385
0.930866 -0.620000 1.005845
0.930866 -0.620000 1.092385
1.099395 -0.620000 1.005845
1.099395 -0.620000 1.092385
0.930866 -0.620000 0.832766
0.930866 -0.620000 0.919306
1.099395 -0.620000 0.832766
1.099395 -0.620000 0.919306
1.267923 -0.620000 0.832766
1.267923 -0.620000 0.919306
1.436451 -0.620000 0.832766
1.436451 -0.620000 0.919305
1.267923 -0.620000 1.005845
1.436451 -0.620000 1.005845
1.267923 -0.620000 1.092385
1.436451 -0.620000 1.092385
-0.754415 -0.620000 1.438544
-0.754415 -0.620000 1.352005
-0.585887 -0.620000 1.438544
-0.922944 -0.620000 1.352005
-0.922944 -0.620000 1.265465
-0.922944 -0.620000 1.178925
-1.091472 -0.620000 1.265465
-1.091472 -0.620000 1.178925
-1.260000 -0.620000 1.265465
-1.260000 -0.620000 1.178925
-1.260000 -0.620000 1.352005
-1.091472 -0.620000 1.352005
-1.091472 -0.620000 1.438544
-0.922944 -0.620000 1.438544
-1.091472 -0.620000 1.092385
-1.260000 -0.620000 1.092385
-1.091472 -0.620000 1.005845
-0.922944 -0.620000 1.092385
-1.260000 -0.620000 1.005845
-1.260000 -0.620000 1.438544
-1.260000 -0.620000 1.525084
-1.091472 -0.620000 1.525084
-1.260000 -0.620000 1.611624
-1.091472 -0.620000 1.611624
-0.922944 -0.620000 1.525084
-0.922944 -0.620000 1.611624
-0.754415 -0.620000 1.525084
-0.754415 -0.620000 1.611624
-0.585887 -0.620000 1.525084
-0.585887 -0.620000 1.611624
-0.922944 -0.620000 1.698164
-0.754415 -0.620000 1.698164
-0.585887 -0.620000 1.698164
-1.260000 -0.620000 1.698164
-1.091472 -0.620000 1.698164
-0.417359 -0.620000 1.525084
-0.417359 -0.620000 1.611624
-0.248831 -0.620000 1.525084
-0.248831 -0.620000 1.611624
-0.248831 -0.620000 1.698164
-0.080303 -0.620000 1.698164
-0.417359 -0.620000 1.698164
1.183658 -0.131596 0.385643
1.211746 -0.146231 0.385643
1.211746 -0.143891 0.371220
1.183658 -0.126346 0.371220
1.071306 -0.073057 0.385643
1.099394 -0.087692 0.385643
1.099394 -0.073713 0.371220
1.071306 -0.056169 0.371220
1.071306 -0.005505 0.327950
1.099394 -0.031778 0.327950
1.099394 -0.017799 0.313526
1.071306 0.011383 0.313526
1.183659 -0.173596 0.501029
1.211747 -0.164955 0.501029
1.211747 -0.162614 0.486606
1.183659 -0.168346 0.486606
1.071306 -0.208161 0.501029
1.099395 -0.199519 0.501029
1.099395 -0.185541 0.486606
1.071306 -0.191273 0.486606
1.071306 -0.140609 0.443336
1.099395 -0.143605 0.443336
1.099394 -0.129627 0.428913
1.071306 -0.123721 0.428913
1.408363 -0.104466 0.501029
1.436451 -0.095825 0.501029
1.436451 -0.116761 0.486606
1.408363 -0.122492 0.486606
1.296011 -0.139031 0.501029
1.324099 -0.130390 0.501029
1.324099 -0.139687 0.486606
1.296011 -0.145419 0.486606
1.296011 -0.164583 0.443336
1.324099 -0.167580 0.443336
1.324099 -0.176878 0.428913
1.296011 -0.170971 0.428913
1.071307 -0.226648 1.654893
1.099395 -0.220721 1.654893
1.071307 -0.224821 1.640470
1.099395 -0.222143 1.669316
1.127483 -0.215811 1.669316
1.155571 -0.209480 1.669316
1.127483 -0.216829 1.683739
1.155571 -0.210093 1.683739
1.127483 -0.217848 1.698163
1.155571 -0.210707 1.698163
1.099395 -0.224988 1.698163
1.099395 -0.223566 1.683739
1.071307 -0.230302 1.683739
1.071307 -0.228475 1.669316
1.183659 -0.203357 1.683739
1.183659 -0.203566 1.698163
1.211747 -0.196621 1.683739
1.183659 -0.203148 1.669316
1.211747 -0.196425 1.698163
1.071307 -0.232129 1.698163
1.043219 -0.239270 1.698163
1.043219 -0.237038 1.683740
1.015131 -0.246411 1.698163
1.015131 -0.243775 1.683740
1.043219 -0.234807 1.669316
1.015131 -0.241139 1.669316
1.043219 -0.232576 1.654893
1.015131 -0.238503 1.654893
1.043219 -0.230344 1.640470
1.015131 -0.235867 1.640470
0.987043 -0.247471 1.669316
0.987043 -0.244430 1.654893
0.987043 -0.241390 1.640470
0.987043 -0.253552 1.698163
0.987043 -0.250511 1.683740
1.043219 -0.228113 1.626046
1.015131 -0.233231 1.626046
1.043219 -0.225881 1.611623
1.015131 -0.230595 1.611623
0.987043 -0.235309 1.611623
0.987043 -0.232269 1.597200
0.987043 -0.238350 1.626046
1.071307 -0.250763 1.308734
1.099395 -0.240922 1.308734
1.099395 -0.244439 1.294311
1.071307 -0.255115 1.294311
1.099395 -0.247957 1.279887
1.071307 -0.259466 1.279887
1.099395 -0.251475 1.265464
1.071307 -0.263817 1.265464
1.099395 -0.254992 1.251041
1.071307 -0.268169 1.251041
1.099395 -0.258510 1.236617
1.071307 -0.272520 1.236617
1.071307 -0.246412 1.323157
1.099395 -0.237404 1.323157
1.071307 -0.242060 1.337580
1.099395 -0.233887 1.337580
1.071307 -0.237709 1.352004
1.099395 -0.230369 1.352004
1.071307 -0.233357 1.366427
1.099395 -0.226851 1.366427
1.071307 -0.229006 1.380850
1.099395 -0.223334 1.380850
1.071307 -0.224655 1.395274
1.099395 -0.219816 1.395274
1.071307 -0.220303 1.409697
1.099395 -0.216299 1.409697
1.071307 -0.215952 1.424120
1.099395 -0.212781 1.424120
1.071307 -0.211600 1.438544
1.099395 -0.209263 1.438544
1.071307 -0.207249 1.452967
1.099395 -0.205746 1.452967
1.071307 -0.202898 1.467390
1.099395 -0.202228 1.467390
1.183659 -0.203268 1.424120
1.211747 -0.200098 1.424120
1.211747 -0.200280 1.409697
1.183659 -0.204285 1.409697
1.211747 -0.200462 1.395274
1.183659 -0.205301 1.395274
1.211747 -0.200645 1.380850
1.183659 -0.206317 1.380850
1.296011 -0.190585 1.424120
1.324099 -0.187414 1.424120
1.324099 -0.184261 1.409697
1.296011 -0.188266 1.409697
1.324099 -0.181108 1.395274
1.296011 -0.185947 1.395274
1.324099 -0.177956 1.380850
1.296011 -0.183628 1.380850
1.324099 -0.174803 1.366427
1.296011 -0.181309 1.366427
1.324099 -0.171650 1.352004
1.296011 -0.178990 1.352004
1.324099 -0.168497 1.337580
1.296011 -0.176671 1.337580
1.324099 -0.165344 1.323157
1.296011 -0.174352 1.323157
1.324099 -0.162192 1.308734
1.296011 -0.172033 1.308734
1.324099 -0.159039 1.294310
1.296011 -0.169714 1.294310
1.324099 -0.155886 1.279887
1.296011 -0.167395 1.279887
1.324099 -0.152733 1.265464
1.296011 -0.165076 1.265464
1.324099 -0.149580 1.251041
1.296011 -0.162757 1.251041
1.324099 -0.146428 1.236617
1.296011 -0.160438 1.236617
1.183659 -0.188475 1.193347
1.211747 -0.177395 1.193347
1.211747 -0.169037 1.178924
1.183659 -0.179141 1.178924
1.211747 -0.160678 1.164501
1.183659 -0.169806 1.164501
1.211747 -0.152320 1.150078
1.183659 -0.160472 1.150078
1.183659 -0.197810 1.207771
1.211747 -0.185753 1.207771
1.183659 -0.207144 1.222194
1.211747 -0.194111 1.222194
1.183659 -0.216479 1.236617
1.211747 -0.202469 1.236617
1.155571 -0.220178 1.222194
1.155571 -0.178934 1.164501
1.183659 -0.169806 1.164501
1.183659 -0.179141 1.178924
1.155571 -0.199556 1.193347
1.183659 -0.188475 1.193347
1.183659 -0.197810 1.207771
1.239835 -0.188458 1.236617
1.239835 -0.181077 1.222194
1.211747 -0.194111 1.222194
1.239835 -0.173695 1.207771
1.211747 -0.185753 1.207771
1.239835 -0.166314 1.193347
1.211747 -0.177395 1.193347
1.239835 -0.158932 1.178924
1.211747 -0.169037 1.178924
1.239835 -0.151551 1.164501
1.211747 -0.160678 1.164501
1.239835 -0.144169 1.150077
1.211747 -0.152320 1.150078
1.239835 -0.136788 1.135654
1.211747 -0.143962 1.135654
1.239835 -0.129406 1.121231
1.211747 -0.135604 1.121231
1.239835 -0.122024 1.106808
1.211747 -0.127246 1.106808
1.239835 -0.114643 1.092384
1.211747 -0.118888 1.092384
1.239835 -0.107261 1.077961
1.211747 -0.110530 1.077961
1.239835 -0.099880 1.063538
1.211747 -0.102172 1.063538
1.239835 -0.092498 1.049114
1.211747 -0.093814 1.049114
1.239835 -0.085117 1.034691
1.211747 -0.085456 1.034691
1.239835 -0.077735 1.020268
1.211747 -0.077098 1.020268
1.239835 -0.070353 1.005844
1.211747 -0.068740 1.005845
1.296011 -0.144152 1.193347
1.324099 -0.133071 1.193347
1.324099 -0.128619 1.178924
1.296011 -0.138724 1.178924
1.324099 -0.124167 1.164501
1.296011 -0.133295 1.164501
1.324099 -0.119715 1.150077
1.296011 -0.127867 1.150077
1.324099 -0.115263 1.135654
1.296011 -0.122438 1.135654
1.324099 -0.110811 1.121231
1.296011 -0.117009 1.121231
1.324099 -0.106359 1.106808
1.296011 -0.111581 1.106808
1.324099 -0.101907 1.092384
1.296011 -0.106152 1.092384
1.324099 -0.097455 1.077961
1.296011 -0.100724 1.077961
1.324099 -0.093003 1.063538
1.296011 -0.095295 1.063538
1.324099 -0.088551 1.049114
1.296011 -0.089867 1.049114
1.324099 -0.084099 1.034691
1.296011 -0.084438 1.034691
1.324099 -0.079647 1.020268
1.296011 -0.079009 1.020268
1.324099 -0.075195 1.005844
1.296011 -0.073581 1.005844
1.183659 -0.054145 0.847188
1.211747 -0.063073 0.847188
1.211747 -0.062558 0.832765
1.183659 -0.052965 0.832765
1.211747 -0.062043 0.818342
1.183659 -0.051785 0.818342
1.183659 -0.050605 0.803918
1.211747 -0.062558 0.832765
1.239835 -0.072151 0.832765
1.183659 -0.051785 0.818342
1.155571 -0.043372 0.832765
1.183659 -0.054145 0.847188
1.155571 -0.047062 0.861612
1.183659 -0.055325 0.861612
1.183659 -0.145252 0.616416
1.211747 -0.137139 0.616416
1.211747 -0.144106 0.601992
1.183659 -0.154070 0.601992
1.071306 -0.177703 0.616416
1.099395 -0.169590 0.616416
1.099395 -0.183963 0.601992
1.071306 -0.193927 0.601992
1.099395 -0.198336 0.587569
1.071306 -0.210151 0.587569
1.099395 -0.212709 0.573146
1.071306 -0.226376 0.573146
1.099395 -0.227082 0.558723
1.071306 -0.242600 0.558723
1.099395 -0.241455 0.544299
1.071306 -0.258824 0.544299
1.071306 -0.161479 0.630839
1.099395 -0.155217 0.630839
1.071307 -0.145254 0.645262
1.099395 -0.140844 0.645262
1.071307 -0.129030 0.659685
1.099395 -0.126471 0.659685
1.071307 -0.112806 0.674109
1.099395 -0.112098 0.674109
1.071307 -0.096581 0.688532
1.099395 -0.097725 0.688532
1.071307 -0.080357 0.702955
1.099395 -0.083352 0.702955
1.071307 -0.064133 0.717379
1.099395 -0.068979 0.717379
1.071307 -0.047908 0.731802
1.099395 -0.054607 0.731802
1.071307 -0.031684 0.746225
1.099395 -0.040234 0.746225
1.071307 -0.015460 0.760649
1.099395 -0.025861 0.760649
1.071307 0.000765 0.775072
1.099395 -0.011488 0.775072
1.183659 -0.074701 0.731802
1.211747 -0.081399 0.731802
1.211747 -0.088367 0.717379
1.183659 -0.083520 0.717379
1.408363 -0.128287 0.731802
1.436451 -0.134985 0.731802
1.436451 -0.127142 0.717379
1.408363 -0.122295 0.717379
1.296011 -0.101494 0.731802
1.324099 -0.108192 0.731802
1.324099 -0.107754 0.717379
1.296011 -0.102907 0.717379
1.296011 -0.107147 0.674109
1.324099 -0.106440 0.674109
1.324099 -0.106002 0.659685
1.296011 -0.108561 0.659685
-1.175735 -0.160449 1.539508
-1.147647 -0.166555 1.539508
-1.147647 -0.177312 1.525084
-1.175735 -0.172463 1.525084
-1.147647 -0.188068 1.510661
-1.175735 -0.184477 1.510661
-1.147647 -0.198825 1.496238
-1.175735 -0.196491 1.496238
-1.147647 -0.209581 1.481814
-1.175735 -0.208505 1.481814
-1.147647 -0.220338 1.467391
-1.175735 -0.220519 1.467391
-1.175735 -0.148435 1.553931
-1.147647 -0.155799 1.553931
-1.175735 -0.136421 1.568354
-1.147647 -0.145042 1.568354
-1.175735 -0.124407 1.582778
-1.147647 -0.134286 1.582778
-1.175735 -0.112393 1.597201
-1.147647 -0.123529 1.597201
-1.175735 -0.100379 1.611624
-1.147647 -0.112773 1.611624
-1.175735 -0.088365 1.626047
-1.147647 -0.102016 1.626047
-1.175735 -0.076350 1.640471
-1.147647 -0.091260 1.640471
-1.175735 -0.064336 1.654894
-1.147647 -0.080503 1.654894
-1.175735 -0.052322 1.669317
-1.147647 -0.069746 1.669317
-1.175735 -0.040308 1.683741
-1.147647 -0.058990 1.683741
-1.175735 -0.052322 1.669317
-1.175735 -0.028294 1.698164
-1.147647 -0.048233 1.698164
-1.203823 -0.008355 1.698164
-1.175735 -0.028294 1.698164
-1.203823 -0.021627 1.683741
-1.175735 -0.040308 1.683741
-1.203823 -0.034898 1.669317
-1.175735 -0.064336 1.654894
-1.203823 -0.048170 1.654894
-1.175735 -0.076350 1.640471
-1.203823 -0.061441 1.640471
-1.175735 -0.088365 1.626047
-1.203823 -0.074713 1.626047
-1.175735 -0.100379 1.611624
-1.203823 -0.087985 1.611624
-1.231911 -0.061061 1.626047
-1.203823 -0.074713 1.626047
-1.231911 -0.075591 1.611624
-1.203823 -0.101256 1.597201
-1.231911 -0.090120 1.597201
-1.203823 -0.114528 1.582778
-1.231911 -0.104649 1.582778
-1.203823 -0.127799 1.568354
-1.231911 -0.119178 1.568354
-1.203823 -0.141071 1.553931
-1.231911 -0.133707 1.553931
-1.203823 -0.154343 1.539508
-1.231911 -0.148236 1.539508
-1.203823 -0.167614 1.525084
-1.231911 -0.162765 1.525084
-1.203823 -0.180886 1.510661
-1.231911 -0.177294 1.510661
-1.203823 -0.194157 1.496238
-1.231911 -0.191824 1.496238
-1.203823 -0.207429 1.481815
-1.231911 -0.206353 1.481815
-1.203823 -0.220700 1.467391
-1.231911 -0.220882 1.467391
-1.260000 -0.142130 1.539508
-1.231911 -0.148236 1.539508
-1.260000 -0.126343 1.553931
-1.231911 -0.133707 1.553931
-1.260000 -0.157917 1.525084
-1.260000 -0.110557 1.568354
-1.260000 -0.094770 1.582778
-1.231911 -0.104649 1.582778
-1.260000 -0.078983 1.597201
-1.260000 -0.063197 1.611624
-1.231911 -0.075591 1.611624
-1.260000 -0.047410 1.626047
-1.260000 -0.031623 1.640471
-1.231911 -0.046532 1.640471
-1.231911 -0.162765 1.525084
-1.231911 -0.177294 1.510661
-1.260000 -0.173703 1.510661
-1.231911 -0.191824 1.496238
-1.260000 -0.189490 1.496238
-1.231911 -0.206353 1.481815
-1.260000 -0.205276 1.481815
-1.260000 -0.221063 1.467391
-1.260000 -0.015837 1.654894
-1.231911 -0.046532 1.640471
-1.231911 -0.032003 1.654894
-1.203823 -0.048170 1.654894
-1.231911 -0.017474 1.669317
-1.231911 -0.002945 1.683741
-1.203823 -0.021627 1.683741
-1.260000 -0.000050 1.669317
-1.231911 -0.017474 1.669317
-1.231911 0.011584 1.698164
-1.259999 0.031523 1.698164
-1.260000 0.015737 1.683741
-1.063383 -0.129003 1.654894
-1.035295 -0.145169 1.654894
-1.035295 -0.150896 1.640471
-1.063383 -0.135987 1.640471
-1.035295 -0.156622 1.626047
-1.063383 -0.142971 1.626047
-1.035295 -0.162349 1.611624
-1.063383 -0.149955 1.611624
-1.063383 -0.122019 1.669317
-1.035295 -0.139443 1.669317
-1.063383 -0.115035 1.683741
-1.035295 -0.133717 1.683741
-1.063383 -0.108051 1.698164
-1.035295 -0.127990 1.698164
-0.951031 -0.193669 1.654894
-0.922943 -0.209836 1.654894
-0.922943 -0.210532 1.640471
-0.951031 -0.195623 1.640471
-0.922943 -0.211228 1.626047
-0.951031 -0.197577 1.626047
-0.922943 -0.211925 1.611624
-0.951031 -0.199531 1.611624
-0.922943 -0.212621 1.597201
-0.951031 -0.201484 1.597201
-0.922943 -0.213317 1.582777
-0.951031 -0.203438 1.582777
-0.922943 -0.214013 1.568354
-0.951031 -0.205392 1.568354
-0.922943 -0.214710 1.553931
-0.951031 -0.207346 1.553931
-0.922943 -0.215406 1.539508
-0.951031 -0.209300 1.539508
-0.922943 -0.216102 1.525084
-0.951031 -0.211253 1.525084
-0.922943 -0.216799 1.510661
-0.951031 -0.213207 1.510661
-0.922943 -0.217495 1.496238
-0.951031 -0.215161 1.496238
-0.922943 -0.218191 1.481814
-0.951031 -0.217115 1.481814
-0.922943 -0.218887 1.467391
-0.951031 -0.219069 1.467391
-0.726327 -0.282275 1.654894
-0.698239 -0.284865 1.654894
-0.726327 -0.275930 1.640471
-0.698239 -0.291880 1.669317
-0.670151 -0.295141 1.669317
-0.642063 -0.298402 1.669317
-0.670151 -0.302826 1.683740
-0.642063 -0.306757 1.683740
-0.670151 -0.310510 1.698164
-0.642063 -0.315112 1.698164
-0.698239 -0.305909 1.698164
-0.698239 -0.298895 1.683740
-0.726327 -0.294963 1.683740
-0.726327 -0.288619 1.669317
-0.613975 -0.310688 1.683740
-0.613975 -0.319713 1.698164
-0.585887 -0.314619 1.683740
-0.613975 -0.301663 1.669317
-0.585887 -0.324314 1.698164
-0.726327 -0.301308 1.698164
-0.754415 -0.296707 1.698164
-0.754415 -0.291032 1.683741
-0.782503 -0.292105 1.698164
-0.782503 -0.287101 1.683741
-0.754415 -0.285358 1.669317
-0.782503 -0.282097 1.669317
-0.754415 -0.279684 1.654894
-0.782503 -0.277093 1.654894
-0.754415 -0.274010 1.640471
-0.782503 -0.272089 1.640471
-0.810591 -0.278836 1.669317
-0.810591 -0.274502 1.654894
-0.810591 -0.270169 1.640471
-0.810591 -0.287504 1.698164
-0.810591 -0.283170 1.683741
-0.754415 -0.268336 1.626047
-0.782503 -0.267085 1.626047
-0.754415 -0.262661 1.611624
-0.782503 -0.262081 1.611624
-0.810591 -0.261501 1.611624
-0.810591 -0.257167 1.597201
-0.810591 -0.265835 1.626047
-0.276918 -0.290523 1.654894
-0.248830 -0.282045 1.654894
-0.276918 -0.274532 1.640470
-0.248830 -0.298348 1.669317
-0.220742 -0.290182 1.669317
-0.192654 -0.282016 1.669317
-0.220742 -0.306795 1.683740
-0.192654 -0.298941 1.683740
-0.220742 -0.323409 1.698163
-0.192654 -0.315866 1.698163
-0.248830 -0.330952 1.698164
-0.248830 -0.314650 1.683740
-0.276918 -0.322504 1.683740
-0.276918 -0.306514 1.669317
-0.164566 -0.291086 1.683740
-0.164566 -0.308323 1.698163
-0.136478 -0.283232 1.683740
-0.164566 -0.273850 1.669317
-0.136478 -0.300780 1.698163
-0.276918 -0.338495 1.698164
-0.305006 -0.346038 1.698164
-0.305006 -0.330359 1.683740
-0.333094 -0.353581 1.698164
-0.333094 -0.338213 1.683740
-0.305006 -0.314680 1.669317
-0.333094 -0.322846 1.669317
-0.305006 -0.299000 1.654894
-0.333094 -0.307478 1.654894
-0.305006 -0.283321 1.640470
-0.333094 -0.292110 1.640470
-0.361182 -0.331012 1.669317
-0.361182 -0.315955 1.654894
-0.361182 -0.300898 1.640470
-0.361182 -0.361125 1.698164
-0.361182 -0.346068 1.683740
-0.305006 -0.267642 1.626047
-0.333094 -0.276742 1.626047
-0.305006 -0.251962 1.611624
-0.333094 -0.261374 1.611624
-0.361182 -0.270785 1.611624
-0.361182 -0.255729 1.597200
-0.361182 -0.285842 1.626047
0.172490 -0.058494 1.539507
0.200578 -0.071323 1.539507
0.200578 -0.058338 1.525084
0.172490 -0.043744 1.525084
0.200578 -0.045352 1.510660
0.172490 -0.028995 1.510660
0.200578 -0.032366 1.496237
0.172490 -0.014246 1.496237
0.200578 -0.019380 1.481814
0.172490 0.000503 1.481814
0.200578 -0.006394 1.467390
0.172490 0.015252 1.467390
0.172490 -0.073243 1.553930
0.200578 -0.084309 1.553930
0.172490 -0.087992 1.568354
0.200578 -0.097295 1.568354
0.172490 -0.102741 1.582777
0.200578 -0.110281 1.582777
0.172490 -0.117490 1.597200
0.200578 -0.123267 1.597200
0.172490 -0.132239 1.611623
0.200578 -0.136252 1.611623
0.172490 -0.146988 1.626047
0.200578 -0.149238 1.626047
0.172490 -0.161737 1.640470
0.200578 -0.162224 1.640470
0.172490 -0.176487 1.654893
0.200578 -0.175210 1.654893
0.172490 -0.191236 1.669317
0.200578 -0.188196 1.669317
0.172490 -0.205985 1.683740
0.200578 -0.201181 1.683740
0.172490 -0.220734 1.698163
0.200578 -0.214167 1.698163
0.284842 -0.171379 1.654893
0.312930 -0.170102 1.654893
0.312930 -0.164170 1.640470
0.284842 -0.163683 1.640470
0.509547 -0.161164 1.654893
0.537635 -0.159887 1.654893
0.537635 -0.168062 1.640470
0.509547 -0.167575 1.640470
0.397194 -0.166272 1.654893
0.425282 -0.164995 1.654893
0.425282 -0.166116 1.640470
0.397194 -0.165629 1.640470
0.397194 -0.163702 1.597200
0.425282 -0.169479 1.597200
0.425282 -0.170599 1.582777
0.397194 -0.163060 1.582777
0.734251 -0.223018 1.539507
0.762339 -0.222695 1.539507
0.762339 -0.225262 1.525083
0.734251 -0.226286 1.525083
0.762339 -0.227828 1.510660
0.734251 -0.229554 1.510660
0.762339 -0.230395 1.496237
0.734251 -0.232822 1.496237
0.706163 -0.231279 1.510660
0.734251 -0.229554 1.510660
0.706163 -0.227310 1.525083
0.734251 -0.226286 1.525083
0.706163 -0.223341 1.539507
0.734251 -0.223018 1.539507
0.706163 -0.219373 1.553930
0.734251 -0.219750 1.553930
0.762339 -0.222695 1.539507
0.790427 -0.224237 1.525083
0.790427 -0.222371 1.539507
0.762339 -0.220128 1.553930
0.790427 -0.220505 1.553930
0.762339 -0.217561 1.568353
0.790427 -0.218639 1.568353
0.762339 -0.214994 1.582777
0.790427 -0.216773 1.582777
0.790427 -0.222371 1.539507
0.818515 -0.223213 1.525083
0.818515 -0.222048 1.539507
0.790427 -0.220505 1.553930
0.818515 -0.220883 1.553930
0.790427 -0.218639 1.568353
0.818515 -0.219718 1.568353
0.790427 -0.216773 1.582777
0.818515 -0.218552 1.582777
0.790427 -0.214907 1.597200
0.818515 -0.217387 1.597200
0.790427 -0.213041 1.611623
0.818515 -0.216222 1.611623
0.790427 -0.211175 1.626046
0.818515 -0.215057 1.626046
0.790427 -0.209309 1.640470
0.818515 -0.213892 1.640470
0.790427 -0.207443 1.654893
0.818515 -0.212727 1.654893
0.790427 -0.205577 1.669316
0.818515 -0.211562 1.669316
0.790427 -0.203711 1.683740
0.818515 -0.210397 1.683740
0.790427 -0.201845 1.698163
0.818515 -0.209231 1.698163
0.762339 -0.202159 1.654893
0.790427 -0.207443 1.654893
0.762339 -0.199592 1.669316
0.790427 -0.205577 1.669316
0.762339 -0.204726 1.640470
0.762339 -0.197025 1.683740
0.790427 -0.203711 1.683740
0.762339 -0.194458 1.698163
0.734251 -0.193607 1.669316
0.734251 -0.196875 1.654893
0.762339 -0.202159 1.654893
0.734251 -0.200143 1.640470
0.762339 -0.207293 1.626046
0.734251 -0.203411 1.626046
0.762339 -0.209860 1.611623
0.734251 -0.206679 1.611623
0.734251 -0.190339 1.683740
0.762339 -0.199592 1.669316
0.762339 -0.197025 1.683740
0.734251 -0.187071 1.698163
0.706163 -0.199529 1.626047
0.734251 -0.203411 1.626046
0.706163 -0.195560 1.640470
0.734251 -0.200143 1.640470
0.706163 -0.191591 1.654893
0.734251 -0.196875 1.654893
0.706163 -0.187622 1.669316
0.734251 -0.193607 1.669316
0.734251 -0.190339 1.683740
0.706163 -0.183654 1.683740
0.621899 -0.224311 1.539507
0.649987 -0.223988 1.539507
0.649987 -0.229359 1.525083
0.621899 -0.218240 1.553930
0.649987 -0.218617 1.553930
0.649987 -0.213247 1.568353
0.621899 -0.175739 1.654893
0.649987 -0.181023 1.654893
0.621899 -0.181811 1.640470
0.621899 -0.187882 1.626047
0.621899 -0.193954 1.611623
0.649987 -0.191764 1.626047
0.621899 -0.200025 1.597200
0.649987 -0.202506 1.597200
0.846603 -0.218011 1.654893
0.874691 -0.223295 1.654893
0.874691 -0.223058 1.640470
0.846603 -0.218475 1.640470
0.874691 -0.222821 1.626046
0.846603 -0.218939 1.626046
0.874691 -0.222585 1.611623
0.846603 -0.219403 1.611623
0.874691 -0.222348 1.597200
0.846603 -0.219868 1.597200
0.874691 -0.222111 1.582777
0.846603 -0.220332 1.582777
0.874691 -0.221875 1.568353
0.846603 -0.220796 1.568353
0.874691 -0.221638 1.553930
0.846603 -0.221260 1.553930
0.874691 -0.221401 1.539507
0.846603 -0.221725 1.539507
0.874691 -0.221164 1.525083
0.846603 -0.222189 1.525083
0.874691 -0.220928 1.510660
0.846603 -0.222653 1.510660
0.874691 -0.220691 1.496237
0.846603 -0.223117 1.496237
0.874691 -0.220454 1.481813
0.846603 -0.223581 1.481813
0.874691 -0.220218 1.467390
0.846603 -0.224046 1.467390
-1.175736 -0.230157 1.308735
-1.147648 -0.211448 1.308735
-1.147648 -0.210639 1.294312
-1.175736 -0.231034 1.294312
-1.147648 -0.209831 1.279888
-1.175736 -0.231910 1.279888
-1.147648 -0.209023 1.265465
-1.175736 -0.232786 1.265465
-1.147648 -0.208215 1.251042
-1.175736 -0.233662 1.251042
-1.147648 -0.207407 1.236618
-1.175736 -0.234538 1.236618
-1.175736 -0.229281 1.323158
-1.147648 -0.212256 1.323158
-1.175736 -0.228405 1.337581
-1.147648 -0.213064 1.337581
-1.175735 -0.227529 1.352005
-1.147647 -0.213872 1.352005
-1.063383 -0.202210 1.424121
-1.035295 -0.196975 1.424121
-1.035295 -0.189429 1.409698
-1.063383 -0.196348 1.409698
-1.175735 -0.223148 1.424121
-1.147647 -0.217913 1.424121
-1.147647 -0.217105 1.409698
-1.175735 -0.224024 1.409698
-1.175735 -0.226653 1.366428
-1.147647 -0.214680 1.366428
-1.147647 -0.213872 1.352005
-1.175735 -0.227529 1.352005
-0.951031 -0.181271 1.424121
-0.922943 -0.176037 1.424121
-0.922943 -0.161753 1.409698
-0.951031 -0.168672 1.409698
-0.922943 -0.147470 1.395274
-0.951031 -0.156073 1.395274
-0.922943 -0.133187 1.380851
-0.951031 -0.143474 1.380851
-0.922943 -0.118903 1.366428
-0.951031 -0.130875 1.366428
-0.922943 -0.104620 1.352005
-0.951031 -0.118276 1.352005
-0.922943 -0.090336 1.337581
-0.951031 -0.105677 1.337581
-0.922943 -0.076053 1.323158
-0.951031 -0.093078 1.323158
-0.922943 -0.061769 1.308735
-0.951031 -0.080479 1.308735
-0.922943 -0.047486 1.294311
-0.951031 -0.067880 1.294311
-0.922943 -0.033202 1.279888
-0.951031 -0.055281 1.279888
-0.922943 -0.018919 1.265465
-0.951031 -0.042682 1.265465
-0.922943 -0.004636 1.251041
-0.951031 -0.030083 1.251041
-0.922943 0.009648 1.236618
-0.951031 -0.017484 1.236618
-0.726327 -0.024388 1.308735
-0.698239 -0.036874 1.308735
-0.698239 -0.022619 1.294311
-0.726327 -0.008442 1.294311
-0.698239 -0.008365 1.279888
-0.726327 0.007504 1.279888
-0.698239 0.005890 1.265465
-0.726327 0.023451 1.265465
-0.698239 0.020145 1.251041
-0.726327 0.039397 1.251041
-0.698239 0.034400 1.236618
-0.726327 0.055343 1.236618
-0.726327 -0.040335 1.323158
-0.698239 -0.051129 1.323158
-0.726327 -0.056281 1.337581
-0.698239 -0.065384 1.337581
-0.726327 -0.072227 1.352005
-0.698239 -0.079638 1.352005
-0.726327 -0.088174 1.366428
-0.698239 -0.093893 1.366428
-0.726327 -0.104120 1.380851
-0.698239 -0.108148 1.380851
-0.726327 -0.120066 1.395274
-0.698239 -0.122403 1.395274
-0.726327 -0.136013 1.409698
-0.698239 -0.136657 1.409698
-0.726327 -0.151959 1.424121
-0.698239 -0.150912 1.424121
-0.726327 -0.167905 1.438544
-0.698239 -0.165167 1.438544
-0.726327 -0.183851 1.452968
-0.698239 -0.179422 1.452968
-0.726327 -0.199798 1.467391
-0.698239 -0.193676 1.467391
-0.613975 -0.147772 1.424121
-0.585887 -0.146726 1.424121
-0.585887 -0.139237 1.409698
-0.613975 -0.138592 1.409698
-0.389271 -0.139399 1.424121
-0.361182 -0.138353 1.424121
-0.361182 -0.144397 1.409698
-0.389271 -0.143752 1.409698
-0.501623 -0.143586 1.424121
-0.473535 -0.142539 1.424121
-0.473535 -0.141817 1.409698
-0.501623 -0.141172 1.409698
-0.501623 -0.133931 1.366428
-0.473535 -0.139651 1.366428
-0.473535 -0.138929 1.352004
-0.501623 -0.131517 1.352004
-0.276918 -0.102450 1.424121
-0.248830 -0.090483 1.424121
-0.276918 -0.109053 1.409698
-0.248830 -0.083694 1.438544
-0.220742 -0.071541 1.438544
-0.192654 -0.059387 1.438544
-0.220742 -0.064566 1.452967
-0.192654 -0.052226 1.452967
-0.220742 -0.057591 1.467391
-0.192654 -0.045066 1.467391
-0.248830 -0.070117 1.467391
-0.248830 -0.076906 1.452967
-0.276918 -0.089245 1.452967
-0.276918 -0.095848 1.438544
-0.164566 -0.039887 1.452967
-0.164566 -0.032540 1.467391
-0.136478 -0.027547 1.452967
-0.164566 -0.047234 1.438544
-0.136478 -0.020014 1.467391
-0.276918 -0.082643 1.467391
-0.305006 -0.095168 1.467391
-0.305006 -0.101585 1.452967
-0.333094 -0.107694 1.467391
-0.333094 -0.113925 1.452967
-0.305006 -0.108001 1.438544
-0.333094 -0.120155 1.438544
-0.305006 -0.114418 1.424121
-0.333094 -0.126385 1.424121
-0.305006 -0.120834 1.409698
-0.333094 -0.132615 1.409698
-0.361182 -0.132308 1.438544
-0.361182 -0.138353 1.424121
-0.361182 -0.144397 1.409698
-0.361182 -0.120220 1.467391
-0.361182 -0.126264 1.452967
-0.305006 -0.127250 1.395274
-0.333094 -0.138846 1.395274
-0.305006 -0.133667 1.380851
-0.333094 -0.145076 1.380851
-0.361183 -0.156485 1.380851
-0.361183 -0.162530 1.366428
-0.361182 -0.150441 1.395274
0.172490 -0.006576 1.424120
0.200578 -0.026476 1.424120
0.172490 -0.013851 1.409697
0.200578 -0.019782 1.438544
0.228666 -0.040265 1.438544
0.256754 -0.060748 1.438544
0.228666 -0.034153 1.452967
0.256754 -0.055218 1.452967
0.228666 -0.028041 1.467390
0.256754 -0.049688 1.467390
0.200578 -0.006394 1.467390
0.200578 -0.013088 1.452967
0.172490 0.007976 1.452967
0.172490 0.000700 1.438544
0.284842 -0.076282 1.452967
0.284842 -0.071334 1.467390
0.312930 -0.097347 1.452967
0.284842 -0.081230 1.438544
0.312930 -0.092981 1.467390
0.172490 0.015252 1.467390
0.144402 0.036899 1.467390
0.144402 0.029041 1.452967
0.116314 0.058545 1.467390
0.116314 0.050105 1.452967
0.144402 0.021183 1.438544
0.116314 0.041666 1.438544
0.144402 0.013325 1.424121
0.116314 0.033226 1.424121
0.144402 0.005467 1.409697
0.116314 0.024786 1.409697
0.088226 0.062148 1.438544
0.088226 0.053127 1.424121
0.088226 0.044105 1.409697
0.088226 0.080192 1.467390
0.088226 0.071170 1.452967
0.144402 -0.002390 1.395274
0.116314 0.016347 1.395274
0.144402 -0.010248 1.380851
0.116314 0.007907 1.380851
0.088226 0.026062 1.380851
0.088226 0.017040 1.366427
0.088226 0.035083 1.395274
-1.063384 -0.118319 1.077962
-1.035295 -0.115832 1.077962
-1.035295 -0.117373 1.063539
-1.063384 -0.117620 1.063539
-1.175736 -0.128269 1.077962
-1.147648 -0.125782 1.077962
-1.147648 -0.118361 1.063539
-1.175736 -0.118608 1.063539
-1.175736 -0.089626 1.020269
-1.147648 -0.096100 1.020269
-1.147648 -0.088679 1.005845
-1.175736 -0.079965 1.005845
-1.063383 -0.123913 1.193348
-1.035295 -0.103503 1.193348
-1.035295 -0.105044 1.178925
-1.063383 -0.123214 1.178925
-1.175736 -0.205556 1.193348
-1.147648 -0.185145 1.193348
-1.147648 -0.177725 1.178925
-1.175736 -0.195895 1.178925
-1.175736 -0.166913 1.135655
-1.147648 -0.155463 1.135655
-1.147648 -0.148043 1.121232
-1.175736 -0.157252 1.121232
-0.951031 -0.042271 1.193348
-0.922943 -0.021860 1.193348
-0.922943 -0.032363 1.178925
-0.951031 -0.050533 1.178925
-0.951031 -0.075320 1.135655
-0.922943 -0.063871 1.135655
-0.922943 -0.074373 1.121232
-0.951031 -0.083582 1.121232
-0.501623 -0.135132 1.193348
-0.473535 -0.152852 1.193348
-0.473535 -0.159418 1.178925
-0.501623 -0.142774 1.178925
-0.473535 -0.165985 1.164501
-0.501623 -0.150415 1.164501
-0.473535 -0.172552 1.150078
-0.501623 -0.158056 1.150078
-0.473535 -0.179118 1.135655
-0.501623 -0.165698 1.135655
-0.473535 -0.185685 1.121232
-0.501623 -0.173339 1.121232
-0.473535 -0.192251 1.106808
-0.501623 -0.180981 1.106808
-0.473535 -0.198818 1.092385
-0.501623 -0.188622 1.092385
-0.473535 -0.205385 1.077962
-0.501623 -0.196264 1.077962
-0.473535 -0.211951 1.063538
-0.501623 -0.203905 1.063538
-0.473535 -0.218518 1.049115
-0.501623 -0.211546 1.049115
-0.473535 -0.225085 1.034692
-0.501623 -0.219188 1.034692
-0.473535 -0.231651 1.020269
-0.501623 -0.226829 1.020269
-0.473535 -0.238218 1.005845
-0.501623 -0.234471 1.005845
-0.276919 -0.190633 1.193348
-0.248830 -0.179600 1.193348
-0.276919 -0.191416 1.178925
-0.248830 -0.179312 1.207771
-0.220742 -0.168774 1.207771
-0.192654 -0.158236 1.207771
-0.220742 -0.168980 1.222194
-0.192654 -0.158937 1.222194
-0.220742 -0.169186 1.236618
-0.192654 -0.159638 1.236618
-0.248830 -0.178734 1.236618
-0.248830 -0.179023 1.222194
-0.276918 -0.189066 1.222194
-0.276919 -0.189849 1.207771
-0.164566 -0.148894 1.222194
-0.164566 -0.150089 1.236618
-0.136478 -0.138851 1.222194
-0.164566 -0.147699 1.207771
-0.136478 -0.140541 1.236618
-0.276918 -0.188282 1.236618
-0.305007 -0.197831 1.236618
-0.305007 -0.199109 1.222194
-0.333095 -0.207379 1.236618
-0.333095 -0.209152 1.222194
-0.305007 -0.200387 1.207771
-0.333095 -0.210925 1.207771
-0.305007 -0.201665 1.193348
-0.333095 -0.212697 1.193348
-0.305007 -0.202943 1.178925
-0.333095 -0.214470 1.178925
-0.361183 -0.221462 1.207771
-0.361183 -0.223730 1.193348
-0.361183 -0.225997 1.178925
-0.361183 -0.216927 1.236618
-0.361183 -0.219195 1.222194
-0.305007 -0.204221 1.164501
-0.333095 -0.216243 1.164501
-0.305007 -0.205499 1.150078
-0.333095 -0.218016 1.150078
-0.361183 -0.230532 1.150078
-0.361183 -0.232799 1.135655
-0.361183 -0.228265 1.164501
0.172490 -0.085149 1.193348
0.200578 -0.097795 1.193348
0.172490 -0.079812 1.178924
0.200578 -0.103029 1.207771
0.228666 -0.115571 1.207771
0.256754 -0.128114 1.207771
0.228666 -0.120702 1.222194
0.256754 -0.133141 1.222194
0.228666 -0.125833 1.236618
0.256754 -0.138169 1.236618
0.200578 -0.113498 1.236618
0.200578 -0.108263 1.222194
0.172490 -0.095824 1.222194
0.172490 -0.090487 1.207771
0.284842 -0.145580 1.222194
0.284842 -0.150505 1.236618
0.312930 -0.158019 1.222194
0.284842 -0.140656 1.207771
0.312930 -0.162841 1.236618
0.172490 -0.101162 1.236618
0.144402 -0.088826 1.236618
0.144402 -0.083385 1.222194
0.116314 -0.076490 1.236618
0.116314 -0.070946 1.222194
0.144402 -0.077944 1.207771
0.116314 -0.065402 1.207771
0.144402 -0.072504 1.193348
0.116314 -0.059858 1.193348
0.144402 -0.067063 1.178924
0.116314 -0.054314 1.178924
0.088226 -0.052860 1.207771
0.088226 -0.047213 1.193348
0.088226 -0.041565 1.178924
0.088226 -0.064154 1.236618
0.088226 -0.058507 1.222194
0.144402 -0.061622 1.164501
0.116314 -0.048770 1.164501
0.144402 -0.056181 1.150078
0.116314 -0.043226 1.150078
0.088226 -0.030271 1.150078
0.088226 -0.024624 1.135655
0.088226 -0.035918 1.164501
-1.175736 -0.090387 0.962576
-1.147648 -0.099774 0.962576
-1.175736 -0.093861 0.948152
-1.147648 -0.096075 0.976999
-1.119560 -0.105238 0.976999
-1.091472 -0.114401 0.976999
-1.119560 -0.101316 0.991422
-1.091472 -0.110255 0.991422
-1.119560 -0.097394 1.005845
-1.091472 -0.106108 1.005845
-1.147648 -0.088679 1.005845
-1.147648 -0.092377 0.991422
-1.175736 -0.083439 0.991422
-1.175736 -0.086913 0.976999
-1.063384 -0.119193 0.991422
-1.063384 -0.114823 1.005845
-1.035295 -0.128132 0.991422
-1.063384 -0.123564 0.976999
-1.035295 -0.123537 1.005845
-1.175736 -0.079965 1.005845
-1.203824 -0.071250 1.005845
-1.203824 -0.074500 0.991422
-1.231912 -0.062536 1.005845
-1.231912 -0.065562 0.991422
-1.203824 -0.077750 0.976999
-1.231912 -0.068587 0.976999
-1.203824 -0.081000 0.962576
-1.231912 -0.071613 0.962576
-1.203824 -0.084250 0.948152
-1.231912 -0.074639 0.948152
-1.260000 -0.059425 0.976999
-1.260000 -0.062226 0.962576
-1.260000 -0.065028 0.948152
-1.260000 -0.053822 1.005845
-1.260000 -0.056623 0.991422
-1.203824 -0.087500 0.933729
-1.231912 -0.077664 0.933729
-1.203824 -0.090749 0.919306
-1.231912 -0.080690 0.919306
-1.260000 -0.070631 0.919306
-1.260000 -0.073433 0.904882
-1.260000 -0.067829 0.933729
-0.276919 -0.213054 0.962575
-0.248831 -0.193904 0.962575
-0.276919 -0.217133 0.948152
-0.248831 -0.190388 0.976999
-0.220743 -0.171800 0.976998
-0.192655 -0.153213 0.976998
-0.220743 -0.168846 0.991422
-0.192655 -0.150821 0.991422
-0.220743 -0.165891 1.005845
-0.192655 -0.148428 1.005845
-0.248831 -0.183354 1.005845
-0.248831 -0.186871 0.991422
-0.276919 -0.204896 0.991422
-0.276919 -0.208975 0.976999
-0.164567 -0.132796 0.991422
-0.164567 -0.130965 1.005845
-0.136479 -0.114771 0.991422
-0.164567 -0.134626 0.976998
-0.136478 -0.113502 1.005845
-0.276919 -0.200817 1.005845
-0.305007 -0.218280 1.005845
-0.305007 -0.222921 0.991422
-0.333095 -0.235743 1.005845
-0.333095 -0.240946 0.991422
-0.305007 -0.227562 0.976999
-0.333095 -0.246149 0.976999
-0.305007 -0.232203 0.962575
-0.333095 -0.251353 0.962575
-0.305007 -0.236844 0.948152
-0.333095 -0.256556 0.948152
-0.361183 -0.264737 0.976999
-0.361183 -0.270502 0.962575
-0.361183 -0.276267 0.948152
-0.361183 -0.253206 1.005845
-0.361183 -0.258971 0.991422
-0.305007 -0.241485 0.933729
-0.333095 -0.261759 0.933729
-0.305007 -0.246126 0.919305
-0.333095 -0.266962 0.919305
-0.361183 -0.287798 0.919305
-0.361183 -0.293563 0.904882
-0.361183 -0.282032 0.933729
0.172490 -0.008347 0.962575
0.200578 -0.023092 0.962575
0.172490 -0.005875 0.948152
0.200578 -0.025311 0.976998
0.228666 -0.039803 0.976998
0.256754 -0.054296 0.976998
0.228666 -0.041770 0.991422
0.256754 -0.056010 0.991422
0.228666 -0.043737 1.005845
0.256754 -0.057724 1.005845
0.200578 -0.029749 1.005845
0.200578 -0.027530 0.991422
0.172490 -0.013290 0.991422
0.172490 -0.010818 0.976998
0.284842 -0.070250 0.991422
0.284842 -0.071712 1.005845
0.312930 -0.084490 0.991422
0.284842 -0.068788 0.976998
0.312930 -0.085699 1.005845
0.172490 -0.015761 1.005845
0.144402 -0.001774 1.005845
0.144402 0.000950 0.991422
0.116314 0.012214 1.005845
0.116314 0.015190 0.991422
0.144402 0.003674 0.976998
0.116314 0.018167 0.976998
0.144402 0.006398 0.962575
0.116314 0.021143 0.962575
0.144402 0.009122 0.948152
0.116314 0.024119 0.948152
0.088226 0.032659 0.976998
0.088226 0.035888 0.962575
0.088226 0.039117 0.948152
0.088226 0.026201 1.005845
0.088226 0.029430 0.991422
0.144402 0.011846 0.933728
0.116314 0.027096 0.933729
0.144402 0.014570 0.919305
0.116314 0.030072 0.919305
0.088226 0.045574 0.919305
0.088226 0.048803 0.904882
0.088226 0.042345 0.933729
0.621898 -0.169711 0.962575
0.649986 -0.159604 0.962575
0.621898 -0.169275 0.948152
0.649986 -0.160455 0.976998
0.678074 -0.150764 0.976998
0.706162 -0.141073 0.976998
0.678074 -0.152030 0.991421
0.706162 -0.142754 0.991421
0.678074 -0.153297 1.005845
0.706162 -0.144436 1.005845
0.649986 -0.162157 1.005845
0.649986 -0.161306 0.991421
0.621898 -0.170582 0.991421
0.621898 -0.170146 0.976998
0.734250 -0.133479 0.991421
0.734250 -0.135575 1.005845
0.762338 -0.124203 0.991421
0.734250 -0.131382 0.976998
0.762338 -0.126715 1.005845
0.621898 -0.171018 1.005845
0.593810 -0.179879 1.005845
0.593810 -0.179858 0.991421
0.565722 -0.188739 1.005845
0.565722 -0.189134 0.991422
0.593810 -0.179838 0.976998
0.565722 -0.189529 0.976998
0.593810 -0.179817 0.962575
0.565722 -0.189924 0.962575
0.593810 -0.179796 0.948152
0.565722 -0.190318 0.948152
0.537634 -0.199220 0.976998
0.537634 -0.200030 0.962575
0.537634 -0.200840 0.948152
0.537634 -0.197600 1.005845
0.537634 -0.198410 0.991422
0.593810 -0.179776 0.933728
0.565722 -0.190713 0.933728
0.593810 -0.179755 0.919305
0.565722 -0.191108 0.919305
0.537634 -0.202460 0.919305
0.537634 -0.203270 0.904882
0.537634 -0.201650 0.933728
-1.175736 -0.194302 0.616416
-1.147648 -0.192372 0.616416
-1.147648 -0.196419 0.601993
-1.175736 -0.199643 0.601993
-1.147648 -0.200467 0.587570
-1.175736 -0.204984 0.587570
-1.147648 -0.204515 0.573146
-1.175736 -0.210326 0.573146
-1.147648 -0.208562 0.558723
-1.175736 -0.215667 0.558723
-1.147648 -0.212610 0.544300
-1.175736 -0.221008 0.544300
-1.175736 -0.188961 0.630840
-1.147648 -0.188324 0.630840
-1.175736 -0.183619 0.645263
-1.147648 -0.184277 0.645263
-1.175736 -0.178278 0.659686
-1.147648 -0.180229 0.659686
-1.175736 -0.172937 0.674110
-1.147648 -0.176182 0.674110
-1.175736 -0.167596 0.688533
-1.147648 -0.172134 0.688533
-1.175736 -0.162254 0.702956
-1.147648 -0.168087 0.702956
-1.175736 -0.156913 0.717379
-1.147648 -0.164039 0.717379
-1.175736 -0.151572 0.731803
-1.147648 -0.159991 0.731803
-1.175736 -0.146231 0.746226
-1.147648 -0.155944 0.746226
-1.175736 -0.140890 0.760649
-1.147648 -0.151896 0.760649
-1.175736 -0.135548 0.775073
-1.147648 -0.147849 0.775073
-1.063384 -0.185250 0.731803
-1.035296 -0.193669 0.731803
-1.035296 -0.192542 0.717379
-1.063384 -0.185416 0.717379
-1.035296 -0.191415 0.702956
-1.063384 -0.185583 0.702956
-1.035296 -0.190288 0.688533
-1.063384 -0.185749 0.688533
-1.063384 -0.185083 0.746226
-1.035296 -0.194796 0.746226
-1.063384 -0.184917 0.760649
-1.035296 -0.195924 0.760649
-1.063384 -0.184750 0.775073
-1.035296 -0.197051 0.775073
-0.838679 -0.252605 0.731803
-0.810591 -0.261025 0.731803
-0.810591 -0.249548 0.717379
-0.838679 -0.242422 0.717379
-0.810591 -0.238071 0.702956
-0.838679 -0.232239 0.702956
-0.810591 -0.226595 0.688533
-0.838679 -0.222056 0.688533
-0.838679 -0.262788 0.746226
-0.810591 -0.272501 0.746226
-0.838679 -0.272971 0.760649
-0.810591 -0.283978 0.760649
-0.838679 -0.283154 0.775073
-0.810591 -0.295455 0.775073
-0.810591 -0.226595 0.688533
-0.782503 -0.228824 0.688533
-0.754415 -0.231052 0.688533
-0.782503 -0.240449 0.702956
-0.754415 -0.242828 0.702956
-0.782503 -0.252075 0.717379
-0.754415 -0.254603 0.717379
-0.782503 -0.263701 0.731803
-0.754415 -0.266378 0.731803
-0.782503 -0.275327 0.746226
-0.754415 -0.278153 0.746226
-0.782503 -0.286953 0.760649
-0.754415 -0.289929 0.760649
-0.810591 -0.272501 0.746226
-0.810591 -0.261025 0.731803
-0.810591 -0.249548 0.717379
-0.782503 -0.298579 0.775072
-0.754415 -0.301704 0.775072
-0.810591 -0.295455 0.775073
-0.810591 -0.283978 0.760649
-0.726327 -0.292904 0.760649
-0.726327 -0.304829 0.775072
-0.698239 -0.295880 0.760649
-0.698239 -0.283806 0.746226
-0.726327 -0.280980 0.746226
-0.670151 -0.286632 0.746226
-0.642063 -0.289458 0.746226
-0.670151 -0.298855 0.760649
-0.642063 -0.301830 0.760649
-0.698239 -0.271732 0.731803
-0.726327 -0.269055 0.731803
-0.726327 -0.257130 0.717379
-0.670151 -0.311078 0.775072
-0.642063 -0.314203 0.775072
-0.698239 -0.307953 0.775072
-0.613975 -0.304806 0.760649
-0.613975 -0.317328 0.775072
-0.585887 -0.307781 0.760649
-0.613975 -0.292284 0.746226
-0.585887 -0.320452 0.775072
-0.951032 -0.218927 0.731803
-0.922943 -0.227347 0.731803
-0.922943 -0.221045 0.717379
-0.951032 -0.213919 0.717379
-0.922943 -0.214743 0.702956
-0.951032 -0.208911 0.702956
-0.922943 -0.208441 0.688533
-0.951032 -0.203903 0.688533
-0.922943 -0.202139 0.674110
-0.951032 -0.198895 0.674110
-0.922943 -0.195837 0.659686
-0.951032 -0.193886 0.659686
-0.922943 -0.189535 0.645263
-0.951032 -0.188878 0.645263
-0.922943 -0.183234 0.630840
-0.951032 -0.183870 0.630840
-0.922943 -0.176932 0.616416
-0.951032 -0.178862 0.616416
-0.922943 -0.170630 0.601993
-0.951032 -0.173853 0.601993
-0.922943 -0.164328 0.587570
-0.951032 -0.168845 0.587570
-0.922943 -0.158026 0.573146
-0.951032 -0.163837 0.573146
-0.922943 -0.151724 0.558723
-0.951032 -0.158829 0.558723
-0.922943 -0.145422 0.544300
-0.951032 -0.153821 0.544300
-0.922943 -0.139412 0.529876
-0.951032 -0.148827 0.529876
-0.922944 -0.133402 0.515453
-0.951032 -0.143833 0.515453
-0.922944 -0.127391 0.501030
-0.951032 -0.138839 0.501030
-0.922944 -0.121381 0.486607
-0.951032 -0.133845 0.486607
-0.922944 -0.115371 0.472183
-0.951032 -0.128851 0.472183
-0.922944 -0.109361 0.457760
-0.951032 -0.123857 0.457760
-0.922944 -0.103351 0.443337
-0.951032 -0.118863 0.443337
-0.922944 -0.097340 0.428913
-0.951032 -0.113869 0.428913
-0.922944 -0.091330 0.414490
-0.951032 -0.108875 0.414490
-0.922944 -0.085320 0.400067
-0.951032 -0.103881 0.400067
-0.922944 -0.079310 0.385643
-0.951032 -0.098887 0.385643
-0.922944 -0.073300 0.371220
-0.951032 -0.093893 0.371220
-0.922944 -0.067289 0.356797
-0.951032 -0.088899 0.356797
-0.922944 -0.061279 0.342374
-0.951032 -0.083905 0.342374
-0.922944 -0.055269 0.327950
-0.951032 -0.078911 0.327950
-0.922944 -0.049259 0.313527
-0.951032 -0.073917 0.313527
-0.164567 -0.190507 0.616416
-0.136479 -0.190161 0.616416
-0.136479 -0.195286 0.601993
-0.164567 -0.193258 0.601993
-0.276919 -0.191891 0.616416
-0.248831 -0.191545 0.616416
-0.248831 -0.187174 0.601993
-0.276919 -0.185147 0.601993
-0.276919 -0.164913 0.558723
-0.248831 -0.174062 0.558723
-0.248831 -0.169692 0.544299
-0.276919 -0.158169 0.544299
-0.164567 -0.168503 0.731803
-0.136479 -0.149167 0.731803
-0.136479 -0.154291 0.717379
-0.164567 -0.171253 0.717379
-0.276919 -0.245846 0.731803
-0.248831 -0.226510 0.731803
-0.248831 -0.222139 0.717379
-0.276919 -0.239102 0.717379
-0.276919 -0.218868 0.674109
-0.248831 -0.209027 0.674109
-0.248831 -0.204657 0.659686
-0.276919 -0.212124 0.659686
-0.052215 -0.091159 0.731803
-0.024127 -0.071823 0.731803
-0.024127 -0.086443 0.717379
-0.052215 -0.103405 0.717379
-0.052215 -0.140141 0.674109
-0.024127 -0.130301 0.674109
-0.024127 -0.144920 0.659686
-0.052215 -0.152387 0.659686
0.284842 -0.175788 0.616416
0.312930 -0.174130 0.616416
0.312930 -0.183929 0.601993
0.284842 -0.187376 0.601993
0.284842 -0.083086 0.731802
0.312930 -0.095744 0.731802
0.312930 -0.105542 0.717379
0.284842 -0.094674 0.717379
0.312930 -0.115340 0.702956
0.284842 -0.106261 0.702956
0.312930 -0.125139 0.688532
0.284842 -0.117849 0.688532
0.284842 -0.071498 0.746226
0.312930 -0.085945 0.746226
0.284842 -0.059910 0.760649
0.312930 -0.076147 0.760649
0.284842 -0.048322 0.775072
0.312930 -0.066349 0.775072
0.509546 -0.184350 0.731802
0.537634 -0.197008 0.731802
0.537634 -0.192490 0.717379
0.509546 -0.181621 0.717379
0.397194 -0.133718 0.731802
0.425282 -0.146376 0.731802
0.425282 -0.149016 0.717379
0.397194 -0.138148 0.717379
0.397194 -0.151437 0.674109
0.425282 -0.156937 0.674109
0.425282 -0.159578 0.659686
0.397194 -0.155867 0.659686
0.734250 -0.178881 0.616416
0.762338 -0.181454 0.616416
0.762338 -0.190085 0.601992
0.734250 -0.185868 0.601992
0.621898 -0.168587 0.616416
0.649986 -0.171161 0.616416
