# .PCD v.7 - Point Cloud Data file format
VERSION .7
FIELDS x y z
SIZE 4 4 4
TYPE F F F
COUNT 1 1 1
WIDTH 1737
HEIGHT 1
POINTS 1737
DATA ascii
0.024838 0.481515 1.894162
0.024838 0.508721 1.918888
-0.023312 0.619485 2.017791
-0.023312 0.597743 1.993065
0.024838 0.590339 1.993065
0.024838 0.617544 2.017791
0.169291 0.611724 2.017791
0.169291 0.568127 1.993065
0.217442 0.560723 1.993065
0.217442 0.609784 2.017791
-0.408520 0.552840 1.523278
-0.408520 0.557514 1.498552
-0.360369 0.607661 1.498552
-0.360369 0.600494 1.523278
-0.408520 0.548166 1.548003
-0.360369 0.593328 1.548003
-0.408520 0.543492 1.572729
-0.360369 0.586162 1.572729
-0.408520 0.538818 1.597455
-0.360369 0.578996 1.597455
-0.408520 0.534144 1.622180
-0.360369 0.571829 1.622180
-0.408520 0.529471 1.646906
-0.360369 0.564663 1.646906
-0.408520 0.524797 1.671632
-0.360369 0.557497 1.671632
-0.408520 0.520123 1.696357
-0.360369 0.550330 1.696357
-0.408520 0.505455 1.819985
-0.408520 0.508388 1.795260
-0.360369 0.529520 1.819985
-0.312218 0.553585 1.819985
-0.312218 0.558975 1.795260
-0.264067 0.577650 1.819985
-0.312218 0.548194 1.844711
-0.360369 0.525358 1.844711
-0.360369 0.529520 1.819985
-0.264067 0.571031 1.844711
-0.264067 0.577650 1.819985
-0.215916 0.593867 1.844711
-0.167765 0.616704 1.844711
-0.408520 0.502521 1.844711
-0.456671 0.479684 1.844711
-0.456671 0.481389 1.819985
-0.312218 0.542803 1.869437
-0.312218 0.548194 1.844711
-0.264067 0.564412 1.869437
-0.215916 0.593867 1.844711
-0.215916 0.586020 1.869437
-0.167765 0.607628 1.869437
-0.215916 0.578172 1.894162
-0.264067 0.557793 1.894162
-0.264067 0.564412 1.869437
-0.167765 0.598552 1.894162
-0.360369 0.521195 1.869437
-0.408520 0.499587 1.869437
-0.408520 0.502521 1.844711
-0.456671 0.477979 1.869437
-0.456671 0.479684 1.844711
-0.504822 0.456371 1.869437
-0.504822 0.456848 1.844711
-0.552972 0.434763 1.869437
-0.552972 0.434011 1.844711
-0.312218 0.537413 1.894162
-0.360369 0.517033 1.894162
-0.408520 0.496654 1.894162
-0.408520 0.499587 1.869437
-0.456671 0.476274 1.894162
-0.456671 0.477979 1.869437
-0.504822 0.455894 1.894162
-0.504822 0.456371 1.869437
-0.552972 0.435515 1.894162
-0.360369 0.521195 1.869437
-0.408520 0.491373 1.918888
-0.408520 0.496654 1.894162
-0.360369 0.513879 1.918888
-0.408520 0.486092 1.943614
-0.360369 0.510724 1.943614
-0.408520 0.480812 1.968339
-0.360369 0.507570 1.968339
-0.408520 0.475531 1.993065
-0.360369 0.504415 1.993065
-0.408520 0.470250 2.017791
-0.360369 0.501261 2.017791
-0.408520 0.464969 2.042516
-0.360369 0.498106 2.042516
-0.408520 0.459688 2.067242
-0.360369 0.494952 2.067242
-0.408520 0.454408 2.091968
-0.360369 0.491798 2.091968
-0.793727 0.401466 1.127667
-0.793727 0.392859 1.102942
-0.745576 0.396266 1.102942
-0.745576 0.401060 1.127667
-0.793727 0.435893 1.226570
-0.793727 0.427287 1.201844
-0.745576 0.415442 1.201844
-0.745576 0.420237 1.226570
-0.601124 0.373266 1.226570
-0.601124 0.379910 1.201844
-0.552973 0.368066 1.201844
-0.552973 0.357609 1.226570
-0.793727 0.448482 1.325473
-0.793727 0.461714 1.300747
-0.745576 0.434619 1.300747
-0.745576 0.426054 1.325473
-0.793727 0.395553 1.424375
-0.793727 0.408785 1.399649
-0.745576 0.400359 1.399649
-0.745576 0.391794 1.424375
-0.601123 0.380519 1.424375
-0.601123 0.375082 1.399649
-0.552973 0.366656 1.399649
-0.552973 0.376761 1.424375
-0.793727 0.376173 1.721083
-0.793727 0.356332 1.696357
-0.745576 0.370965 1.696357
-0.745576 0.386989 1.721083
-0.793727 0.455538 1.819986
-0.793727 0.435697 1.795260
-0.745576 0.435059 1.795260
-0.745576 0.451083 1.819986
-0.601123 0.437715 1.819985
-0.601123 0.433145 1.795260
-0.552972 0.432507 1.795260
-0.552972 0.433259 1.819985
-0.793727 0.513880 1.918888
-0.793727 0.515063 1.894162
-0.745576 0.499153 1.894162
-0.745576 0.495875 1.918888
-0.793727 0.512696 1.943614
-0.745576 0.492596 1.943614
-0.793727 0.511513 1.968339
-0.745576 0.489318 1.968339
-0.793727 0.510330 1.993065
-0.745576 0.486039 1.993065
-0.793727 0.509147 2.017791
-0.745576 0.482761 2.017791
-0.793727 0.507963 2.042516
-0.745576 0.479482 2.042516
-0.793727 0.506780 2.067242
-0.745576 0.476204 2.067242
-0.793727 0.505597 2.091968
-0.745576 0.472925 2.091968
-1.178935 0.479744 0.929862
-1.178935 0.465696 0.905137
-1.130784 0.439940 0.905137
-1.130784 0.452321 0.929862
-1.227085 0.507167 0.929862
-1.227085 0.491453 0.905137
-1.275236 0.534590 0.929862
-1.275236 0.517209 0.905137
-1.323387 0.562013 0.929862
-1.323387 0.542966 0.905137
-1.323387 0.581060 0.954588
-1.275236 0.551971 0.954588
-1.227085 0.522881 0.954588
-1.227085 0.507167 0.929862
-1.178935 0.493792 0.954588
-1.130784 0.464703 0.954588
-1.275236 0.569352 0.979314
-1.275236 0.551971 0.954588
-1.227085 0.538596 0.979314
-1.178935 0.493792 0.954588
-1.178935 0.507840 0.979314
-1.130784 0.477084 0.979314
-1.178935 0.521888 1.004039
-1.227085 0.554310 1.004039
-1.227085 0.538596 0.979314
-1.130784 0.489465 1.004039
-1.323387 0.600108 0.979314
-1.323387 0.619155 1.004039
-1.275236 0.586732 1.004039
-1.323387 0.638202 1.028765
-1.275236 0.604113 1.028765
-1.275236 0.586732 1.004039
-1.227085 0.570024 1.028765
-1.323387 0.657249 1.053490
-1.275236 0.621494 1.053490
-1.227085 0.585739 1.053490
-1.178935 0.535936 1.028765
-1.178935 0.521888 1.004039
-1.130784 0.501847 1.028765
-1.082633 0.457043 1.004039
-1.082633 0.446328 0.979314
-1.082633 0.467758 1.028765
-1.227085 0.570024 1.028765
-1.178935 0.549984 1.053490
-1.130784 0.501847 1.028765
-1.130784 0.514228 1.053490
-1.082633 0.478473 1.053490
-1.275236 0.638875 1.078216
-1.275236 0.621494 1.053490
-1.227085 0.601453 1.078216
-1.178935 0.549984 1.053490
-1.178935 0.564032 1.078216
-1.130784 0.526610 1.078216
-1.178935 0.578079 1.102942
-1.227085 0.617168 1.102942
-1.227085 0.601453 1.078216
-1.130784 0.538991 1.102942
-1.323387 0.676297 1.078216
-1.323387 0.695344 1.102942
-1.275236 0.656256 1.102942
-1.082633 0.478473 1.053490
-1.082633 0.489188 1.078216
-1.034482 0.442718 1.053490
-1.034482 0.451766 1.078216
-1.130784 0.526610 1.078216
-1.082633 0.499903 1.102942
-1.034482 0.460815 1.102942
-1.034482 0.433669 1.028765
-1.082633 0.467758 1.028765
-1.034482 0.424621 1.004039
-1.082633 0.457043 1.004039
-1.034482 0.415572 0.979314
-1.082633 0.446328 0.979314
-1.034482 0.406524 0.954588
-1.082633 0.435613 0.954588
-1.034482 0.397475 0.929862
-1.082633 0.424898 0.929862
-1.034482 0.388427 0.905137
-1.082633 0.414183 0.905137
-1.034482 0.466137 1.127667
-0.986331 0.421727 1.102942
-0.986331 0.434410 1.127667
-1.034482 0.460815 1.102942
-0.986331 0.414345 1.078216
-1.034482 0.451766 1.078216
-0.986331 0.406963 1.053490
-1.034482 0.442718 1.053490
-0.986331 0.399581 1.028765
-1.034482 0.433669 1.028765
-0.986331 0.392199 1.004039
-1.034482 0.424621 1.004039
-0.986331 0.384816 0.979314
-1.034482 0.415572 0.979314
-0.986331 0.377434 0.954588
-1.034482 0.406524 0.954588
-0.986331 0.370052 0.929862
-1.034482 0.397475 0.929862
-0.986331 0.362670 0.905137
-1.034482 0.388427 0.905137
-1.178935 0.561316 1.127667
-1.178935 0.578079 1.102942
-1.130784 0.538991 1.102942
-1.130784 0.529590 1.127667
-1.178935 0.494263 1.226570
-1.178935 0.511026 1.201844
-1.130784 0.501385 1.201844
-1.130784 0.491983 1.226570
-0.986331 0.485144 1.226570
-0.986331 0.472461 1.201844
-0.938180 0.462819 1.201844
-0.938180 0.482864 1.226570
-1.178935 0.433725 1.325473
-1.178935 0.443973 1.300747
-1.130784 0.463778 1.300747
-1.130784 0.450133 1.325473
-1.178934 0.392734 1.424375
-1.178934 0.402982 1.399649
-1.130784 0.409198 1.399649
-1.130784 0.395553 1.424375
-0.986331 0.404009 1.424375
-0.986331 0.427846 1.399649
-0.938180 0.434063 1.399649
-0.938180 0.406828 1.424375
-1.178934 0.368536 1.523278
-1.178934 0.361991 1.498552
-1.130783 0.354618 1.498552
-1.130783 0.359536 1.523278
-1.178934 0.375081 1.548003
-1.130783 0.364455 1.548003
-1.178934 0.381626 1.572729
-1.130783 0.369374 1.572729
-1.178934 0.388171 1.597455
-1.130783 0.374292 1.597455
-1.178934 0.394716 1.622180
-1.130783 0.379211 1.622180
-1.178934 0.401261 1.646906
-1.130783 0.384130 1.646906
-1.178934 0.407806 1.671632
-1.130783 0.389049 1.671632
-1.178934 0.414351 1.696357
-1.130783 0.393967 1.696357
-1.178934 0.646364 1.918888
-1.178934 0.674109 1.894162
-1.130783 0.651846 1.894162
-1.130783 0.630670 1.918888
-1.178934 0.535384 2.017791
-1.178934 0.563129 1.993065
-1.130783 0.567143 1.993065
-1.130783 0.545968 2.017791
-0.986331 0.577720 2.017791
-0.986331 0.579187 1.993065
-0.938180 0.583202 1.993065
-0.938180 0.588304 2.017791
0.747102 0.598100 0.732057
0.747102 0.615341 0.707331
0.795253 0.572688 0.707330
0.795253 0.561402 0.732057
0.747102 0.529136 0.830959
0.747102 0.546377 0.806234
0.795253 0.527544 0.806234
0.795253 0.516257 0.830959
0.939706 0.477621 0.830959
0.939706 0.471043 0.806234
0.987857 0.452210 0.806234
0.987857 0.464743 0.830959
0.361895 0.579188 0.732057
0.361895 0.589817 0.707331
0.410046 0.620513 0.707331
0.410046 0.604989 0.732057
0.361895 0.536671 0.830959
0.361895 0.547300 0.806234
0.410046 0.558415 0.806234
0.410046 0.542891 0.830959
0.554498 0.561552 0.830959
0.554498 0.591762 0.806234
0.602649 0.602877 0.806234
0.602649 0.567772 0.830959
-0.023313 0.577813 0.732057
-0.023313 0.559976 0.707331
0.024838 0.547527 0.707331
0.024838 0.562607 0.732057
-0.023313 0.595649 0.756782
0.024838 0.577688 0.756782
-0.023313 0.613486 0.781508
0.024838 0.592768 0.781508
-0.023313 0.631322 0.806234
0.024838 0.607848 0.806234
-0.023313 0.649159 0.830959
0.024838 0.622929 0.830959
-0.023313 0.666995 0.855685
0.024838 0.638009 0.855685
-0.023313 0.684832 0.880410
0.024838 0.653090 0.880410
-0.023313 0.702669 0.905136
0.024838 0.668170 0.905136
0.024838 0.682234 0.929862
0.072989 0.633672 0.905136
0.072989 0.652754 0.929862
0.169291 0.544239 0.830959
0.169291 0.537427 0.806234
0.217442 0.513954 0.806234
0.217442 0.518010 0.830959
0.217442 0.509897 0.781508
0.169291 0.530615 0.781508
0.217442 0.505841 0.756782
0.169291 0.523803 0.756782
0.169291 0.551052 0.855685
0.217442 0.522066 0.855685
0.169291 0.557864 0.880410
0.217442 0.526122 0.880410
0.169291 0.564676 0.905136
0.217442 0.530178 0.905136
-0.408520 0.486735 0.732057
-0.408520 0.479582 0.707331
-0.360369 0.503131 0.707331
-0.360369 0.514073 0.732057
-0.408520 0.515344 0.830959
-0.408520 0.508192 0.806234
-0.360369 0.546902 0.806234
-0.360369 0.557845 0.830959
-0.360369 0.535959 0.781508
-0.408520 0.501039 0.781508
-0.408520 0.522496 0.855685
-0.360369 0.568788 0.855685
-0.408520 0.529649 0.880411
-0.360369 0.579730 0.880411
-0.408520 0.536801 0.905136
-0.360369 0.590673 0.905136
-0.215916 0.685347 0.830959
-0.215916 0.663033 0.806234
-0.167765 0.701743 0.806234
-0.167765 0.727848 0.830959
-0.167765 0.675639 0.781508
-0.215916 0.640719 0.781508
-0.167765 0.649534 0.756782
-0.215916 0.618404 0.756782
-0.215916 0.707662 0.855685
-0.167765 0.753953 0.855685
-0.215916 0.729976 0.880410
-0.167765 0.780058 0.880410
-0.215916 0.752291 0.905136
-0.167765 0.806163 0.905136
-0.167765 0.623429 0.732057
-0.215916 0.596090 0.732057
-0.793727 0.535179 0.732057
-0.793727 0.561453 0.707331
-0.745576 0.530950 0.707331
-0.745576 0.509087 0.732057
-0.793727 0.430086 0.830960
-0.793727 0.456359 0.806234
-0.745576 0.443499 0.806234
-0.745576 0.421637 0.830960
-0.601124 0.396290 0.830959
-0.601124 0.404920 0.806234
-0.552973 0.392060 0.806234
-0.552973 0.387841 0.830959
-1.178935 0.465462 0.732057
-1.178935 0.465429 0.707331
-1.130784 0.502936 0.707331
-1.130784 0.495061 0.732057
-1.178935 0.465596 0.830960
-1.178935 0.465563 0.806234
-1.130784 0.471438 0.806234
-1.130784 0.463563 0.830960
-0.986331 0.457465 0.830960
-0.986331 0.489063 0.806234
-0.938180 0.494938 0.806234
-0.938180 0.455432 0.830960
-1.082633 0.461530 0.830960
-1.082633 0.477313 0.806234
-1.034482 0.483188 0.806234
-1.034482 0.459498 0.830960
-1.082633 0.429966 0.880411
-1.082633 0.445748 0.855685
-1.034482 0.435807 0.855685
-1.034482 0.412117 0.880411
-0.986331 0.394268 0.880411
-0.986331 0.425867 0.855685
-0.938180 0.415926 0.855685
-0.938180 0.376420 0.880411
-1.275236 0.469662 0.830960
-1.275236 0.453812 0.806234
-1.227085 0.459687 0.806234
-1.227085 0.467629 0.830960
-1.275236 0.501360 0.880411
-1.275236 0.485511 0.855685
-1.227085 0.475570 0.855685
-1.227085 0.483511 0.880411
-1.178935 0.465663 0.880411
-1.178935 0.465629 0.855685
-1.130784 0.455689 0.855685
-1.130784 0.447814 0.880411
-1.275236 0.406265 0.732057
-1.275236 0.390416 0.707331
-1.227086 0.427922 0.707331
-1.227086 0.435863 0.732057
-1.275236 0.437963 0.781508
-1.275236 0.422114 0.756783
-1.227086 0.443805 0.756783
-1.227085 0.451746 0.781508
-1.178935 0.465529 0.781508
-1.178935 0.465496 0.756783
-1.130784 0.487187 0.756783
-1.130784 0.479312 0.781508
-0.697425 0.413188 0.830959
-0.697425 0.430640 0.806234
-0.649275 0.417780 0.806234
-0.649275 0.404739 0.830959
-0.697425 0.378284 0.880411
-0.697425 0.395736 0.855685
-0.649275 0.391698 0.855685
-0.649275 0.378657 0.880411
-0.601124 0.379030 0.880411
-0.601124 0.387660 0.855685
-0.552973 0.383622 0.855685
-0.552973 0.379403 0.880411
-0.890029 0.446983 0.830960
-0.890029 0.482078 0.806234
-0.841878 0.469219 0.806234
-0.841878 0.438534 0.830960
-0.890029 0.376793 0.880411
-0.890029 0.411888 0.855685
-0.841878 0.407850 0.855685
-0.841878 0.377166 0.880411
-0.793727 0.377538 0.880411
-0.793727 0.403812 0.855685
-0.745576 0.399774 0.855685
-0.745576 0.377911 0.880411
-0.890029 0.587364 0.732057
-0.890029 0.622459 0.707331
-0.841878 0.591956 0.707331
-0.841878 0.561272 0.732057
-0.890029 0.517174 0.781508
-0.890029 0.552269 0.756783
-0.841878 0.530587 0.756783
-0.841878 0.499903 0.781508
-0.793727 0.482632 0.781508
-0.793727 0.508906 0.756783
-0.745576 0.487225 0.756783
-0.745576 0.465362 0.781508
-0.312218 0.600346 0.830959
-0.312218 0.585612 0.806234
-0.264067 0.624323 0.806234
-0.264067 0.642847 0.830959
-0.264067 0.605799 0.781508
-0.312218 0.570879 0.781508
-0.264067 0.587275 0.756782
-0.312218 0.556146 0.756782
-0.312218 0.615079 0.855685
-0.264067 0.661370 0.855685
-0.312218 0.629812 0.880411
-0.264067 0.679894 0.880410
-0.312218 0.644546 0.905136
-0.264067 0.698418 0.905136
-0.504822 0.430342 0.830959
-0.504822 0.430771 0.806234
-0.456671 0.469481 0.806234
-0.456671 0.472843 0.830959
-0.456671 0.466119 0.781508
-0.504822 0.431200 0.781508
-0.504822 0.429913 0.855685
-0.456671 0.476205 0.855685
-0.504822 0.429485 0.880411
-0.456671 0.479567 0.880411
-0.504822 0.432057 0.732057
-0.504822 0.432486 0.707331
-0.456671 0.456034 0.707331
-0.456671 0.459396 0.732057
-0.504822 0.431200 0.781508
-0.504822 0.431628 0.756782
-0.456671 0.462758 0.756782
-0.456671 0.466119 0.781508
-0.408520 0.501039 0.781508
-0.408520 0.493887 0.756782
-0.360369 0.525016 0.756782
-0.360369 0.535959 0.781508
0.072989 0.596699 0.830959
0.072989 0.584375 0.806234
0.121140 0.560901 0.806234
0.121140 0.570469 0.830959
0.121140 0.551333 0.781508
0.072989 0.572050 0.781508
0.121140 0.541764 0.756782
0.072989 0.559726 0.756782
0.121140 0.532196 0.732057
0.072989 0.547402 0.732057
0.072989 0.609023 0.855685
0.121140 0.580037 0.855685
0.072989 0.621348 0.880410
0.121140 0.589606 0.880410
0.072989 0.633672 0.905136
0.121140 0.599174 0.905136
-0.119614 0.701619 0.830959
-0.119614 0.678270 0.806234
-0.071464 0.654796 0.806234
-0.071464 0.675389 0.830959
-0.071464 0.634203 0.781508
-0.119614 0.654921 0.781508
-0.071464 0.613611 0.756782
-0.119614 0.631572 0.756782
-0.071464 0.593018 0.732057
-0.119614 0.608223 0.732057
-0.071464 0.572425 0.707331
-0.119614 0.584875 0.707331
-0.119614 0.724967 0.855685
-0.071464 0.695981 0.855685
-0.119614 0.748316 0.880410
-0.071464 0.716574 0.880410
-0.119614 0.771665 0.905136
-0.071464 0.737167 0.905136
0.458197 0.549111 0.830959
0.458197 0.569531 0.806234
0.506347 0.580646 0.806234
0.506347 0.555331 0.830959
0.458197 0.508272 0.880410
0.458197 0.528691 0.855685
0.506347 0.530017 0.855685
0.506347 0.504702 0.880410
0.554498 0.501132 0.880410
0.554498 0.531342 0.855685
0.602649 0.532667 0.855685
0.602649 0.497562 0.880410
0.650800 0.525743 0.855685
0.650800 0.496593 0.880410
0.602649 0.462457 0.905136
0.650800 0.496593 0.880410
0.650800 0.467442 0.905136
0.265593 0.524230 0.830959
0.265593 0.525069 0.806234
0.313744 0.536185 0.806234
0.313744 0.530450 0.830959
0.265593 0.522552 0.880410
0.265593 0.523391 0.855685
0.313744 0.524716 0.855685
0.313744 0.518982 0.880410
0.361895 0.515412 0.880410
0.361895 0.526041 0.855685
0.410046 0.527366 0.855685
0.410046 0.511842 0.880410
0.265593 0.527586 0.732057
0.265593 0.528425 0.707331
0.313744 0.559121 0.707331
0.313744 0.553387 0.732057
0.265593 0.525908 0.781508
0.265593 0.526747 0.756782
0.313744 0.547653 0.756782
0.313744 0.541919 0.781508
0.361895 0.557929 0.781508
0.361895 0.568559 0.756782
0.410046 0.589464 0.756782
0.410046 0.573940 0.781508
0.843404 0.503379 0.830959
0.843404 0.508710 0.806234
0.891555 0.489877 0.806234
0.891555 0.490500 0.830959
0.843404 0.492716 0.880409
0.843404 0.498047 0.855685
0.891555 0.491123 0.855685
0.891555 0.491746 0.880409
0.939706 0.490777 0.880409
0.939706 0.484199 0.855685
0.987857 0.477275 0.855685
0.987857 0.489808 0.880409
0.650800 0.554893 0.830959
0.650800 0.584044 0.806234
0.698951 0.565210 0.806234
0.698951 0.542015 0.830959
0.650800 0.496593 0.880410
0.650800 0.525743 0.855685
0.698951 0.518819 0.855685
0.698951 0.495624 0.880410
0.747102 0.494654 0.880410
0.747102 0.511895 0.855685
0.795253 0.504971 0.855685
0.795253 0.493685 0.880409
0.650800 0.671495 0.732057
0.650800 0.700645 0.707331
0.698951 0.657993 0.707331
0.698951 0.634797 0.732057
0.650800 0.613194 0.781508
0.650800 0.642344 0.756782
0.698951 0.611602 0.756782
0.698951 0.588406 0.781508
0.747102 0.563618 0.781508
0.747102 0.580859 0.756782
0.795253 0.550116 0.756782
0.795253 0.538830 0.781508
-1.082632 0.556552 2.017791
-1.082632 0.571158 1.993065
-1.034481 0.575173 1.993065
-1.034481 0.567136 2.017791
-1.082632 0.527340 2.067242
-1.082632 0.541946 2.042516
-1.034481 0.559100 2.042516
-1.034481 0.551063 2.067242
-0.986331 0.574786 2.067242
-0.986331 0.576253 2.042516
-0.938180 0.593407 2.042516
-0.938180 0.598510 2.067242
-1.275236 0.514215 2.017791
-1.275236 0.555100 1.993065
-1.227085 0.559114 1.993065
-1.227085 0.524800 2.017791
-1.275236 0.432447 2.067242
-1.275236 0.473331 2.042516
-1.227085 0.490485 2.042516
-1.227085 0.456170 2.067242
-1.178934 0.479893 2.067242
-1.178934 0.507639 2.042516
-1.130783 0.524792 2.042516
-1.130783 0.503617 2.067242
-1.275236 0.677752 1.918888
-1.275236 0.718637 1.894162
-1.227085 0.696373 1.894162
-1.227085 0.662058 1.918888
-1.275236 0.595984 1.968339
-1.275236 0.636868 1.943614
-1.227085 0.627744 1.943614
-1.227085 0.593429 1.968339
-1.178934 0.590874 1.968339
-1.178934 0.618619 1.943614
-1.130783 0.609495 1.943614
-1.130783 0.588319 1.968339
-1.082633 0.363706 1.622180
-1.082633 0.360414 1.597455
-1.034482 0.346535 1.597455
-1.034482 0.348201 1.622180
-1.034482 0.344869 1.572729
-1.082633 0.357121 1.572729
-1.034482 0.343203 1.548003
-1.082633 0.353829 1.548003
-1.034482 0.341537 1.523278
-1.082633 0.350537 1.523278
-1.034482 0.339871 1.498552
-1.082633 0.347244 1.498552
-1.082633 0.366998 1.646906
-1.034482 0.349867 1.646906
-1.082633 0.370291 1.671632
-1.034482 0.351533 1.671632
-1.082633 0.373583 1.696357
-1.034482 0.353199 1.696357
-1.275236 0.425726 1.622180
-1.275236 0.415928 1.597455
-1.227085 0.402050 1.597455
-1.227085 0.410221 1.622180
-1.227085 0.393878 1.572729
-1.275236 0.406130 1.572729
-1.227085 0.385707 1.548003
-1.275236 0.396332 1.548003
-1.227085 0.377535 1.523278
-1.275236 0.386535 1.523278
-1.227085 0.369364 1.498552
-1.275236 0.376737 1.498552
-1.275236 0.435524 1.646906
-1.227085 0.418393 1.646906
-1.275236 0.445322 1.671632
-1.227085 0.426564 1.671632
-1.275236 0.455120 1.696357
-1.227085 0.434736 1.696357
-1.082633 0.398372 1.424375
-1.082633 0.415414 1.399649
-1.034482 0.421630 1.399649
-1.034482 0.401190 1.424375
-1.082633 0.364287 1.473826
-1.082633 0.381329 1.449101
-1.034482 0.380751 1.449101
-1.034482 0.360311 1.473826
-0.986331 0.356335 1.473826
-0.986331 0.380172 1.449101
-0.938180 0.379594 1.449101
-0.938180 0.352359 1.473826
-0.938180 0.406828 1.424375
-0.890029 0.403070 1.424375
-0.890029 0.380503 1.449101
-0.986331 0.380172 1.449101
-0.986331 0.404009 1.424375
-0.938180 0.379594 1.449101
-0.938180 0.352359 1.473826
-0.890029 0.380503 1.449101
-0.890029 0.357936 1.473826
-1.275236 0.387096 1.424375
-1.275236 0.390549 1.399649
-1.227085 0.396765 1.399649
-1.227085 0.389915 1.424375
-1.275236 0.380190 1.473826
-1.275236 0.383643 1.449101
-1.227085 0.383065 1.449101
-1.227085 0.376214 1.473826
-1.178934 0.372238 1.473826
-1.178934 0.382486 1.449101
-1.130784 0.381908 1.449101
-1.130784 0.368263 1.473826
-1.275236 0.400908 1.325473
-1.275236 0.404361 1.300747
-1.227085 0.424167 1.300747
-1.227085 0.417317 1.325473
-1.275236 0.394002 1.374924
-1.275236 0.397455 1.350198
-1.227085 0.410466 1.350198
-1.227085 0.403616 1.374924
-1.178934 0.413229 1.374924
-1.178934 0.423477 1.350198
-1.130784 0.436488 1.350198
-1.130784 0.422843 1.374924
-1.082633 0.489703 1.226570
-1.082633 0.491743 1.201844
-1.034482 0.482102 1.201844
-1.034482 0.487424 1.226570
-1.082633 0.485623 1.276021
-1.082633 0.487663 1.251296
-1.034482 0.492745 1.251296
-1.034482 0.498067 1.276021
-0.986331 0.510511 1.276021
-0.986331 0.497827 1.251296
-0.938180 0.502910 1.251296
-0.938180 0.522955 1.276021
-1.275236 0.498822 1.226570
-1.275236 0.530309 1.201844
-1.227085 0.520667 1.201844
-1.227085 0.496542 1.226570
-1.275236 0.435848 1.276021
-1.275236 0.467335 1.251296
-1.227085 0.472417 1.251296
-1.227085 0.448292 1.276021
-1.178935 0.460736 1.276021
-1.178935 0.477499 1.251296
-1.130784 0.482581 1.251296
-1.130784 0.473180 1.276021
-1.275236 0.624769 1.127667
-1.275236 0.656256 1.102942
-1.227085 0.617168 1.102942
-1.227085 0.593043 1.127667
-1.275236 0.561795 1.177119
-1.275236 0.593282 1.152393
-1.227085 0.568917 1.152393
-1.227085 0.544792 1.177119
-1.178935 0.527789 1.177119
-1.178935 0.544553 1.152393
-1.130784 0.520188 1.152393
-1.130784 0.510786 1.177119
-0.697425 0.456375 2.017791
-0.697425 0.461748 1.993065
-0.649274 0.437458 1.993065
-0.649274 0.429989 2.017791
-0.649274 0.444927 1.968339
-0.697425 0.467122 1.968339
-0.649274 0.452396 1.943614
-0.697425 0.472496 1.943614
-0.649274 0.459865 1.918888
-0.697425 0.477870 1.918888
-0.649274 0.467334 1.894162
-0.697425 0.483244 1.894162
-0.697425 0.451001 2.042516
-0.649274 0.422520 2.042516
-0.697425 0.445627 2.067242
-0.649274 0.415051 2.067242
-0.697425 0.440253 2.091968
-0.649274 0.407582 2.091968
-0.890029 0.561918 2.017791
-0.890029 0.558911 1.993065
-0.841878 0.534620 1.993065
-0.841878 0.535532 2.017791
-0.841878 0.533709 1.968339
-0.890029 0.555904 1.968339
-0.841878 0.532796 1.943614
-0.890029 0.552897 1.943614
-0.841878 0.531884 1.918888
-0.890029 0.549889 1.918888
-0.841878 0.530972 1.894162
-0.890029 0.546882 1.894162
-0.890029 0.564926 2.042516
-0.841878 0.536445 2.042516
-0.890029 0.567933 2.067242
-0.841878 0.537357 2.067242
-0.890029 0.570940 2.091968
-0.841878 0.538269 2.091968
-0.697425 0.446627 1.819985
-0.697425 0.434421 1.795260
-0.649274 0.433783 1.795260
-0.649274 0.442171 1.819985
-0.697425 0.471038 1.869437
-0.697425 0.458832 1.844711
-0.649274 0.450559 1.844711
-0.649274 0.458946 1.869437
-0.601123 0.446855 1.869437
-0.601123 0.442285 1.844711
-0.552972 0.434011 1.844711
-0.552972 0.434763 1.869437
-0.890029 0.464450 1.819986
-0.890029 0.436973 1.795260
-0.841878 0.436335 1.795260
-0.841878 0.459994 1.819986
-0.890029 0.519405 1.869437
-0.890029 0.491928 1.844711
-0.841878 0.483654 1.844711
-0.841878 0.507313 1.869437
-0.793727 0.495221 1.869437
-0.793727 0.475380 1.844711
-0.745576 0.467106 1.844711
-0.745576 0.483130 1.869437
-0.890029 0.354542 1.721083
-0.890029 0.327064 1.696357
-0.841878 0.341698 1.696357
-0.841878 0.365357 1.721083
-0.890029 0.409496 1.770534
-0.890029 0.382019 1.745809
-0.841878 0.389016 1.745809
-0.841878 0.412676 1.770534
-0.793727 0.415856 1.770534
-0.793727 0.396014 1.745809
-0.745576 0.403012 1.745809
-0.745576 0.419036 1.770534
-0.697425 0.388036 1.424375
-0.697425 0.391934 1.399649
-0.649274 0.383508 1.399649
-0.649274 0.384278 1.424375
-0.697425 0.380241 1.473826
-0.697425 0.384139 1.449101
-0.649274 0.385047 1.449101
-0.649274 0.385817 1.473826
-0.601123 0.391394 1.473826
-0.601123 0.385956 1.449101
-0.552973 0.386865 1.449101
-0.552973 0.396970 1.473826
-0.890029 0.403070 1.424375
-0.890029 0.425637 1.399649
-0.841878 0.417211 1.399649
-0.841878 0.399311 1.424375
-0.890029 0.357936 1.473826
-0.890029 0.380503 1.449101
-0.841878 0.381412 1.449101
-0.841878 0.363512 1.473826
-0.793727 0.369088 1.473826
-0.793727 0.382321 1.449101
-0.745576 0.383230 1.449101
-0.745576 0.374665 1.473826
-0.890029 0.493338 1.325473
-0.890029 0.515905 1.300747
-0.841878 0.488809 1.300747
-0.841878 0.470910 1.325473
-0.890029 0.448204 1.374924
-0.890029 0.470771 1.350198
-0.841878 0.453010 1.350198
-0.841878 0.435111 1.374924
-0.793727 0.422017 1.374924
-0.793727 0.435250 1.350198
-0.745576 0.417489 1.350198
-0.745576 0.408924 1.374924
-0.697425 0.404580 1.226570
-0.697425 0.403598 1.201844
-0.649274 0.391754 1.201844
-0.649274 0.388923 1.226570
-0.697425 0.406542 1.276021
-0.697425 0.405561 1.251296
-0.649274 0.386091 1.251296
-0.649274 0.383260 1.276021
-0.601124 0.359977 1.276021
-0.601124 0.366621 1.251296
-0.552973 0.347152 1.251296
-0.552973 0.336695 1.276021
-0.890029 0.467208 1.226570
-0.890029 0.450975 1.201844
-0.841878 0.439131 1.201844
-0.841878 0.451550 1.226570
-0.890029 0.499672 1.276021
-0.890029 0.483440 1.251296
-0.841878 0.463970 1.251296
-0.841878 0.476390 1.276021
-0.793727 0.453107 1.276021
-0.793727 0.444500 1.251296
-0.745576 0.425031 1.251296
-0.745576 0.429825 1.276021
-0.890029 0.402278 1.127667
-0.890029 0.386046 1.102942
-0.841878 0.389452 1.102942
-0.841878 0.401872 1.127667
-0.890029 0.434743 1.177119
-0.890029 0.418510 1.152393
-0.841878 0.414292 1.152393
-0.841878 0.426711 1.177119
-0.793727 0.418680 1.177119
-0.793727 0.410073 1.152393
-0.745576 0.405854 1.152393
-0.745576 0.410648 1.177119
-0.312218 0.532272 2.017791
-0.312218 0.533300 1.993065
-0.264067 0.562185 1.993065
-0.264067 0.563283 2.017791
-0.264067 0.561087 1.968339
-0.312218 0.534328 1.968339
-0.264067 0.559989 1.943614
-0.312218 0.535356 1.943614
-0.264067 0.558891 1.918888
-0.312218 0.536385 1.918888
-0.264067 0.557793 1.894162
-0.312218 0.537413 1.894162
-0.312218 0.531244 2.042516
-0.264067 0.564381 2.042516
-0.312218 0.530216 2.067242
-0.264067 0.565479 2.067242
-0.312218 0.529187 2.091968
-0.264067 0.566577 2.091968
-0.504821 0.408228 2.017791
-0.504821 0.417761 1.993065
-0.456671 0.446646 1.993065
-0.456671 0.439239 2.017791
-0.456671 0.454053 1.968339
-0.504822 0.427294 1.968339
-0.456671 0.461460 1.943614
-0.504822 0.436828 1.943614
-0.456671 0.468867 1.918888
-0.504822 0.446361 1.918888
-0.456671 0.476274 1.894162
-0.504822 0.455894 1.894162
-0.504821 0.398694 2.042516
-0.456671 0.431832 2.042516
-0.504821 0.389161 2.067242
-0.456671 0.424425 2.067242
-0.504821 0.379628 2.091968
-0.456671 0.417018 2.091968
-0.504822 0.457324 1.819985
-0.504822 0.457801 1.795260
-0.456671 0.481389 1.819985
-0.552972 0.433259 1.819985
-0.504822 0.457324 1.819985
-0.504822 0.456848 1.844711
-0.312218 0.609514 1.622180
-0.312218 0.619173 1.597455
-0.264067 0.659350 1.597455
-0.264067 0.647199 1.622180
-0.264067 0.671501 1.572729
-0.312218 0.628831 1.572729
-0.264067 0.683652 1.548003
-0.312218 0.638490 1.548003
-0.264067 0.695803 1.523278
-0.312218 0.648149 1.523278
-0.264067 0.707954 1.498552
-0.312218 0.657807 1.498552
-0.312218 0.599855 1.646906
-0.264067 0.635048 1.646906
-0.312218 0.590197 1.671632
-0.264067 0.622897 1.671632
-0.312218 0.580538 1.696357
-0.264067 0.610746 1.696357
0.072989 0.615604 2.017791
0.072989 0.582935 1.993065
0.121140 0.575531 1.993065
0.121140 0.613664 2.017791
0.072989 0.680944 2.067242
0.072989 0.648274 2.042516
0.121140 0.651798 2.042516
0.121140 0.689931 2.067242
0.169291 0.698919 2.067242
0.169291 0.655322 2.042516
0.217442 0.658845 2.042516
0.217442 0.707906 2.067242
-0.119614 0.623365 2.017791
-0.119614 0.612550 1.993065
-0.071463 0.605146 1.993065
-0.071463 0.621425 2.017791
-0.119614 0.644994 2.067242
-0.119614 0.634179 2.042516
-0.071463 0.637703 2.042516
-0.071463 0.653981 2.067242
-0.023312 0.662969 2.067242
-0.023312 0.641227 2.042516
0.024839 0.644750 2.042516
0.024839 0.671956 2.067242
-0.119614 0.580107 1.918888
-0.119614 0.569293 1.894162
-0.071463 0.540033 1.894162
-0.071463 0.556312 1.918888
-0.119614 0.601736 1.968339
-0.119614 0.590921 1.943614
-0.071463 0.572590 1.943614
-0.071463 0.588868 1.968339
-0.023312 0.576000 1.968339
-0.023312 0.554258 1.943614
0.024838 0.535927 1.943614
0.024838 0.563133 1.968339
-0.119614 0.603393 1.819985
-0.119614 0.614760 1.795260
-0.071463 0.594663 1.795260
-0.071463 0.581006 1.819985
-0.071463 0.608321 1.770534
-0.119614 0.626127 1.770534
-0.071463 0.621978 1.745808
-0.119614 0.637494 1.745808
-0.071463 0.635636 1.721083
-0.119614 0.648860 1.721083
-0.071463 0.649294 1.696357
-0.119614 0.660227 1.696357
-0.119614 0.592026 1.844711
-0.071463 0.567348 1.844711
-0.119614 0.580659 1.869437
-0.071463 0.553691 1.869437
-0.119614 0.569293 1.894162
-0.071463 0.540033 1.894162
-0.119614 0.736328 1.424375
-0.119614 0.713383 1.399649
-0.071463 0.698517 1.399649
-0.071463 0.724407 1.424375
-0.071463 0.672626 1.374924
-0.119614 0.690438 1.374924
-0.071463 0.646735 1.350198
-0.119614 0.667493 1.350198
-0.071463 0.620845 1.325472
-0.119614 0.644548 1.325472
-0.071463 0.594954 1.300747
-0.119614 0.621603 1.300747
-0.119614 0.759273 1.449100
-0.071463 0.750298 1.449100
-0.119614 0.782218 1.473826
-0.071463 0.776189 1.473826
-0.119614 0.805163 1.498552
-0.071463 0.802079 1.498552
0.072989 0.616751 1.226570
0.072989 0.650666 1.201844
0.121140 0.640167 1.201844
0.121140 0.602214 1.226570
0.121140 0.678119 1.177118
0.072989 0.684582 1.177118
0.121140 0.716072 1.152393
0.072989 0.718497 1.152393
0.121140 0.754025 1.127667
0.072989 0.752412 1.127667
0.121140 0.791977 1.102941
0.072989 0.786327 1.102941
0.072989 0.582836 1.251295
0.121140 0.564261 1.251295
0.072989 0.548921 1.276021
0.121140 0.526309 1.276021
0.072989 0.515005 1.300747
0.121140 0.488356 1.300747
0.169291 0.503697 1.276021
0.169291 0.545687 1.251295
0.217442 0.527112 1.251295
0.217442 0.481085 1.276021
0.121140 0.526309 1.276021
0.121140 0.564261 1.251295
0.121140 0.488356 1.300747
0.169291 0.503697 1.276021
0.169291 0.461706 1.300747
0.217442 0.435057 1.300747
0.169291 0.587677 1.226570
0.169291 0.545687 1.251295
-0.119614 0.674900 1.226570
-0.119614 0.692665 1.201844
-0.071463 0.682165 1.201844
-0.071463 0.660363 1.226570
-0.119614 0.639369 1.276021
-0.119614 0.657134 1.251295
-0.071463 0.638560 1.251295
-0.071463 0.616757 1.276021
-0.023313 0.594145 1.276021
-0.023313 0.619985 1.251295
0.024838 0.601410 1.251295
0.024838 0.571533 1.276021
-0.119614 0.745961 1.127667
-0.119614 0.763727 1.102941
-0.071464 0.769377 1.102941
-0.071463 0.747574 1.127667
-0.119614 0.710430 1.177118
-0.119614 0.728196 1.152393
-0.071463 0.725771 1.152393
-0.071463 0.703968 1.177118
-0.023313 0.697506 1.177118
-0.023313 0.723346 1.152393
0.024838 0.720921 1.152393
0.024838 0.691044 1.177118
0.072989 0.729082 1.028764
0.072989 0.710000 1.004039
0.121140 0.695576 1.004039
0.121140 0.719676 1.028764
0.072989 0.767245 1.078216
0.072989 0.748163 1.053490
0.121140 0.743777 1.053490
0.121140 0.767877 1.078216
0.169291 0.768509 1.078216
0.169291 0.739390 1.053490
0.217442 0.735003 1.053490
0.217442 0.769140 1.078216
-0.119614 0.766703 1.028764
-0.119614 0.767696 1.004039
-0.071464 0.753272 1.004039
-0.071464 0.757298 1.028764
-0.119614 0.764719 1.078216
-0.119614 0.765711 1.053490
-0.071464 0.761324 1.053490
-0.071464 0.765350 1.078216
-0.023313 0.765982 1.078216
-0.023313 0.756937 1.053490
0.024838 0.752550 1.053490
0.024838 0.766614 1.078216
-0.119614 0.770673 0.929862
-0.119614 0.771665 0.905136
-0.071464 0.737167 0.905136
-0.071464 0.741193 0.929862
-0.119614 0.768688 0.979313
-0.119614 0.769680 0.954587
-0.071464 0.745219 0.954587
-0.071464 0.749245 0.979313
-0.023313 0.729803 0.979313
-0.023313 0.720758 0.954587
0.024838 0.696297 0.954587
0.024838 0.710360 0.979313
0.458197 0.535188 2.017791
0.458197 0.551112 1.993065
0.506348 0.549190 1.993065
0.506348 0.520269 2.017791
0.458197 0.503341 2.067242
0.458197 0.519265 2.042516
0.506348 0.491348 2.042516
0.506348 0.462428 2.067242
0.554499 0.421515 2.067242
0.554499 0.463432 2.042516
0.602649 0.435516 2.042516
0.602649 0.380602 2.067242
0.265593 0.594865 2.017791
0.265593 0.558801 1.993065
0.313744 0.556878 1.993065
0.313744 0.579946 2.017791
0.265593 0.666993 2.067242
0.265593 0.630929 2.042516
0.313744 0.603013 2.042516
0.313744 0.626080 2.067242
0.361895 0.585167 2.067242
0.361895 0.575097 2.042516
0.410046 0.547181 2.042516
0.410046 0.544254 2.067242
0.265593 0.450608 1.918888
0.265593 0.414544 1.894162
0.313744 0.464609 1.894162
0.313744 0.487677 1.918888
0.265593 0.522736 1.968339
0.265593 0.486672 1.943614
0.313744 0.510744 1.943614
0.313744 0.533811 1.968339
0.361895 0.544886 1.968339
0.361895 0.534816 1.943614
0.410046 0.558887 1.943614
0.410046 0.555961 1.968339
0.458197 0.649724 1.819985
0.458197 0.661363 1.795260
0.506348 0.698819 1.795260
0.506348 0.690332 1.819985
0.506348 0.707306 1.770534
0.458197 0.673002 1.770534
0.506348 0.715792 1.745808
0.458197 0.684642 1.745808
0.506348 0.724279 1.721083
0.458197 0.696281 1.721083
0.506348 0.732766 1.696357
0.458197 0.707920 1.696357
0.458197 0.638085 1.844711
0.506348 0.681845 1.844711
0.458197 0.626445 1.869437
0.506348 0.673359 1.869437
0.458197 0.614806 1.894162
0.506348 0.664872 1.894162
0.265593 0.487291 1.819985
0.265593 0.511540 1.795260
0.313744 0.548996 1.795260
0.313744 0.527899 1.819985
0.313744 0.570093 1.770534
0.265593 0.535789 1.770534
0.313744 0.591189 1.745808
0.265593 0.560038 1.745808
0.313744 0.612286 1.721083
0.265593 0.584288 1.721083
0.313744 0.633383 1.696357
0.265593 0.608537 1.696357
0.265593 0.463042 1.844711
0.313744 0.506803 1.844711
0.265593 0.438793 1.869437
0.313744 0.485706 1.869437
0.265593 0.414544 1.894162
0.313744 0.464609 1.894162
0.458197 0.640620 1.622180
0.458197 0.618187 1.597455
0.506348 0.605097 1.597455
0.506348 0.637014 1.622180
0.458197 0.685487 1.671632
0.458197 0.663053 1.646906
0.506348 0.668932 1.646906
0.506348 0.700849 1.671632
0.554499 0.716211 1.671632
0.554499 0.674810 1.646906
0.602649 0.680688 1.646906
0.602649 0.731573 1.671632
0.602649 0.629803 1.622180
0.650800 0.642414 1.622180
0.650800 0.685394 1.646906
0.265593 0.655042 1.622180
0.265593 0.670544 1.597455
0.313744 0.657455 1.597455
0.313744 0.651437 1.622180
0.265593 0.624039 1.671632
0.265593 0.639540 1.646906
0.313744 0.645419 1.646906
0.313744 0.639401 1.671632
0.361895 0.654763 1.671632
0.361895 0.651297 1.646906
0.410046 0.657175 1.646906
0.410046 0.670125 1.671632
0.265593 0.717050 1.523278
0.265593 0.732551 1.498552
0.313744 0.681527 1.498552
0.313744 0.675509 1.523278
0.265593 0.686046 1.572729
0.265593 0.701548 1.548003
0.313744 0.669491 1.548003
0.313744 0.663473 1.572729
0.361895 0.640900 1.572729
0.361895 0.637434 1.548003
0.410046 0.605377 1.548003
0.410046 0.618326 1.572729
0.458197 0.541688 1.424375
0.458197 0.546100 1.399649
0.506348 0.533457 1.399649
0.506348 0.519450 1.424375
0.458197 0.532865 1.473826
0.458197 0.537276 1.449100
0.506348 0.505443 1.449100
0.506348 0.491436 1.473826
0.554498 0.450006 1.473826
0.554498 0.473609 1.449100
0.602649 0.441775 1.449100
0.602649 0.408577 1.473826
0.265593 0.630643 1.424375
0.265593 0.596673 1.399649
0.313744 0.584030 1.399649
0.313744 0.608404 1.424375
0.265593 0.698582 1.473826
0.265593 0.664612 1.449100
0.313744 0.632778 1.449100
0.313744 0.657152 1.473826
0.361895 0.615723 1.473826
0.361895 0.600944 1.449100
0.410046 0.569110 1.449100
0.410046 0.574294 1.473826
0.265593 0.494764 1.325472
0.265593 0.460795 1.300747
0.313744 0.486533 1.300747
0.313744 0.510907 1.325472
0.265593 0.562704 1.374924
0.265593 0.528734 1.350198
0.313744 0.535281 1.350198
0.313744 0.559656 1.374924
0.361895 0.556608 1.374924
0.361895 0.541829 1.350198
0.410046 0.548376 1.350198
0.410046 0.553560 1.374924
0.458197 0.635951 1.226570
0.458197 0.660020 1.201844
0.506348 0.668190 1.201844
0.506348 0.648514 1.226570
0.458197 0.587815 1.276021
0.458197 0.611883 1.251295
0.506348 0.628837 1.251295
0.506348 0.609161 1.276021
0.554498 0.630507 1.276021
0.554498 0.645791 1.251295
0.602649 0.662746 1.251295
0.602649 0.651853 1.276021
0.361895 0.545123 1.276021
0.361895 0.577975 1.251295
0.410046 0.594929 1.251295
0.410046 0.566469 1.276021
0.265593 0.752245 1.127667
0.265593 0.793881 1.102941
0.313744 0.784484 1.102941
0.313744 0.747240 1.127667
0.217442 0.757250 1.127667
0.217442 0.803278 1.102941
0.265593 0.752245 1.127667
0.265593 0.710609 1.152393
0.313744 0.747240 1.127667
0.313744 0.709996 1.152393
0.361895 0.676531 1.177118
0.361895 0.709383 1.152393
0.410046 0.708770 1.152393
0.410046 0.680309 1.177118
0.843404 0.427038 2.017791
0.843404 0.450153 1.993065
0.891555 0.431115 1.993065
0.891555 0.414359 2.017791
0.843404 0.380806 2.067242
0.843404 0.403922 2.042516
0.891555 0.397603 2.042516
0.891555 0.380847 2.067242
0.939706 0.380888 2.067242
0.939706 0.391284 2.042516
0.987858 0.384965 2.042516
0.987857 0.380929 2.067242
0.650800 0.477752 2.017791
0.650800 0.526307 1.993065
0.698951 0.507268 1.993065
0.698951 0.465073 2.017791
0.650800 0.380643 2.067242
0.650800 0.429197 2.042516
0.698951 0.422878 2.042516
0.698951 0.380684 2.067242
0.747102 0.380725 2.067242
0.747102 0.416560 2.042516
0.795253 0.410241 2.042516
0.795253 0.380765 2.067242
0.650800 0.671971 1.918888
0.650800 0.720526 1.894162
0.698951 0.676048 1.894162
0.698951 0.633853 1.918888
0.650800 0.574862 1.968339
0.650800 0.623416 1.943614
0.698951 0.591658 1.943614
0.698951 0.549463 1.968339
0.747102 0.524065 1.968339
0.747102 0.559900 1.943614
0.795253 0.528143 1.943614
0.795253 0.498667 1.968339
0.843404 0.611737 1.819985
0.843404 0.634777 1.795260
0.891555 0.606986 1.795260
0.891555 0.579774 1.819985
0.843404 0.565656 1.869437
0.843404 0.588696 1.844711
0.891555 0.552562 1.844711
0.891555 0.525350 1.869437
0.843404 0.542616 1.894162
0.891555 0.498138 1.894162
0.891555 0.579774 1.819985
0.843404 0.611737 1.819985
0.795253 0.557618 1.918888
0.795253 0.587093 1.894162
0.843404 0.519500 1.918888
0.650800 0.739586 1.819985
0.650800 0.745940 1.795260
0.698951 0.718149 1.795260
0.698951 0.707624 1.819985
0.650800 0.726879 1.869437
0.650800 0.733233 1.844711
0.698951 0.697099 1.844711
0.698951 0.686574 1.869437
0.747102 0.646268 1.869437
0.747102 0.660965 1.844711
0.795253 0.624830 1.844711
0.795253 0.605962 1.869437
0.650800 0.765000 1.721083
0.650800 0.771354 1.696357
0.698951 0.760250 1.696357
0.698951 0.749725 1.721083
0.650800 0.752293 1.770534
0.650800 0.758647 1.745808
0.698951 0.739199 1.745808
0.698951 0.728674 1.770534
0.747102 0.705055 1.770534
0.747102 0.719752 1.745808
0.795253 0.700305 1.745808
0.795253 0.681436 1.770534
0.843404 0.692855 1.622180
0.843404 0.681494 1.597455
0.891555 0.702009 1.597455
0.891555 0.705465 1.622180
0.843404 0.715577 1.671632
0.843404 0.704216 1.646906
0.891555 0.708921 1.646906
0.891555 0.712378 1.671632
0.939706 0.709178 1.671632
0.939706 0.713627 1.646906
0.987857 0.718332 1.646906
0.987857 0.705979 1.671632
0.650800 0.642414 1.622180
0.650800 0.599434 1.597455
0.698951 0.619949 1.597455
0.698951 0.655024 1.622180
0.650800 0.728374 1.671632
0.650800 0.685394 1.646906
0.698951 0.690099 1.646906
0.698951 0.725174 1.671632
0.747102 0.721975 1.671632
0.747102 0.694805 1.646906
0.795253 0.699510 1.646906
0.795253 0.718776 1.671632
0.650800 0.470494 1.523278
0.650800 0.427514 1.498552
0.698951 0.479648 1.498552
0.698951 0.514723 1.523278
0.650800 0.556454 1.572729
0.650800 0.513473 1.548003
0.698951 0.549798 1.548003
0.698951 0.584873 1.572729
0.747102 0.613293 1.572729
0.747102 0.586123 1.548003
0.795253 0.622447 1.548003
0.795253 0.641713 1.572729
0.843404 0.611750 1.424375
0.843404 0.603650 1.399649
0.891555 0.622746 1.399649
0.891555 0.639106 1.424375
0.843404 0.627950 1.473826
0.843404 0.619850 1.449100
0.891555 0.655465 1.449100
0.891555 0.671824 1.473826
0.939706 0.715699 1.473826
0.939706 0.691080 1.449100
0.987857 0.726695 1.449100
0.987857 0.759573 1.473826
0.650800 0.502328 1.424375
0.650800 0.527266 1.399649
0.698951 0.546362 1.399649
0.698951 0.529683 1.424375
0.650800 0.452452 1.473826
0.650800 0.477390 1.449100
0.698951 0.513005 1.449100
0.698951 0.496326 1.473826
0.747102 0.540201 1.473826
0.747102 0.548620 1.449100
0.795253 0.584235 1.449100
0.795253 0.584075 1.473826
0.650800 0.602080 1.325472
0.650800 0.627018 1.300747
0.698951 0.613076 1.300747
0.698951 0.596398 1.325472
0.650800 0.552204 1.374924
0.650800 0.577142 1.350198
0.698951 0.579719 1.350198
0.698951 0.563041 1.374924
0.747102 0.573877 1.374924
0.747102 0.582296 1.350198
0.795253 0.584873 1.350198
0.795253 0.584714 1.374924
0.843404 0.594624 1.028764
0.843404 0.573176 1.004039
0.891555 0.568755 1.004039
0.891555 0.587852 1.028764
0.891555 0.549659 0.979313
0.843404 0.551728 0.979313
0.891555 0.530562 0.954587
0.843404 0.530280 0.954587
0.891555 0.511466 0.929862
0.843404 0.508832 0.929862
0.891555 0.492369 0.905136
0.843404 0.487384 0.905136
0.843404 0.616072 1.053490
0.891555 0.606948 1.053490
0.843404 0.637520 1.078216
0.891555 0.626044 1.078216
0.843404 0.658968 1.102941
0.891555 0.645141 1.102941
1.036008 0.416508 2.017791
1.084159 0.450994 1.993065
1.084159 0.444014 2.017791
1.036008 0.410999 2.042516
1.084159 0.437033 2.042516
1.036008 0.405490 2.067242
1.084159 0.430052 2.067242
1.036008 0.399982 2.091968
1.084159 0.423071 2.091968
1.036008 0.433033 1.943614
1.084159 0.464956 1.943614
1.084159 0.457975 1.968339
1.036008 0.438542 1.918888
0.987857 0.401111 1.943614
1.036008 0.433033 1.943614
0.987857 0.397074 1.968339
1.036008 0.427525 1.968339
0.987857 0.393038 1.993065
1.036008 0.422016 1.993065
0.987857 0.389002 2.017791
1.036008 0.416508 2.017791
0.987858 0.384965 2.042516
1.036008 0.410999 2.042516
0.987857 0.380929 2.067242
1.036008 0.405490 2.067242
0.987857 0.376893 2.091968
1.036008 0.399982 2.091968
1.228611 0.587620 1.819985
1.228611 0.588987 1.795260
1.276762 0.596503 1.795260
1.276762 0.601974 1.819985
1.228611 0.584886 1.869437
1.228611 0.586253 1.844711
1.276762 0.607445 1.844711
1.276762 0.612916 1.869437
1.324914 0.640945 1.869437
1.324914 0.628637 1.844711
1.373064 0.649829 1.844711
1.373065 0.668975 1.869437
1.036008 0.530204 1.819985
1.036008 0.558921 1.795260
1.084159 0.566438 1.795260
1.084159 0.544558 1.819985
1.036008 0.472768 1.869437
1.036008 0.501486 1.844711
1.084159 0.522678 1.844711
1.084159 0.500798 1.869437
1.132309 0.528827 1.869437
1.132309 0.543870 1.844711
1.180460 0.565061 1.844711
1.180460 0.556857 1.869437
1.036008 0.645074 1.721083
1.036008 0.673792 1.696357
1.084159 0.653957 1.696357
1.084159 0.632077 1.721083
1.036008 0.587639 1.770534
1.036008 0.616356 1.745808
1.084159 0.610198 1.745808
1.084159 0.588318 1.770534
1.132309 0.588996 1.770534
1.132309 0.604039 1.745808
1.180460 0.597880 1.745808
1.180460 0.589675 1.770534
1.228611 0.634204 1.424375
1.228611 0.623300 1.399649
1.276762 0.615772 1.399649
1.276762 0.622282 1.424375
1.228611 0.656014 1.473826
1.228611 0.645109 1.449100
1.276762 0.628792 1.449100
1.276762 0.635302 1.473826
1.324913 0.614590 1.473826
1.324914 0.612475 1.449100
1.373064 0.596157 1.449100
1.373064 0.593878 1.473826
1.036008 0.681894 1.424375
1.036008 0.653411 1.399649
1.084159 0.645883 1.399649
1.084159 0.669972 1.424375
1.036008 0.738861 1.473826
1.036008 0.710378 1.449100
1.084159 0.694061 1.449100
1.084159 0.718150 1.473826
1.132309 0.697438 1.473826
1.132309 0.677743 1.449100
1.180460 0.661426 1.449100
1.180460 0.676726 1.473826
1.036008 0.567960 1.325472
1.036008 0.539476 1.300747
1.084159 0.549527 1.300747
1.084159 0.573616 1.325472
1.036008 0.624927 1.374924
1.036008 0.596443 1.350198
1.084159 0.597705 1.350198
1.084159 0.621794 1.374924
1.132309 0.618661 1.374924
1.132309 0.598967 1.350198
1.180460 0.600229 1.350198
1.180460 0.615528 1.374924
1.228611 0.549059 1.226570
1.228611 0.538852 1.201844
1.276762 0.531931 1.201844
1.276762 0.546381 1.226570
1.228611 0.569474 1.276021
1.228611 0.559266 1.251295
1.276762 0.560832 1.251295
1.276762 0.575282 1.276021
1.324913 0.581090 1.276021
1.324913 0.562397 1.251295
1.373064 0.563962 1.251295
1.373064 0.586898 1.276021
1.036008 0.559770 1.226570
1.036008 0.566535 1.201844
1.084159 0.559614 1.201844
1.084159 0.557093 1.226570
1.036008 0.546241 1.276021
1.036008 0.553006 1.251295
1.084159 0.554571 1.251295
1.084159 0.552049 1.276021
1.132309 0.557857 1.276021
1.132309 0.556136 1.251295
1.180460 0.557701 1.251295
1.180460 0.563665 1.276021
1.036008 0.586830 1.127667
1.036008 0.593594 1.102941
1.084159 0.569701 1.102941
1.084159 0.567180 1.127667
1.036008 0.573300 1.177118
1.036008 0.580065 1.152393
1.084159 0.564658 1.152393
1.084159 0.562136 1.177118
1.132309 0.550972 1.177118
1.132309 0.549251 1.152393
1.180460 0.533844 1.152393
1.180460 0.539808 1.177118
1.228611 0.521355 1.028764
1.228611 0.529133 1.004039
1.276762 0.522976 1.004039
1.276762 0.510765 1.028764
1.228611 0.505800 1.078216
1.228611 0.513578 1.053490
1.276762 0.498553 1.053490
1.276762 0.486342 1.078216
1.324913 0.466883 1.078216
1.324913 0.483529 1.053490
1.373064 0.468504 1.053490
1.373064 0.447424 1.078216
1.036008 0.563717 1.028764
1.036008 0.553758 1.004039
1.084159 0.547601 1.004039
1.084159 0.553126 1.028764
1.036008 0.583635 1.078216
1.036008 0.573676 1.053490
1.084159 0.558651 1.053490
1.084159 0.564176 1.078216
1.132309 0.544718 1.078216
1.132309 0.543627 1.053490
1.180460 0.528602 1.053490
1.180460 0.525259 1.078216
1.036008 0.523880 0.929862
1.036008 0.513921 0.905136
1.084159 0.525501 0.905136
1.084159 0.531026 0.929862
1.036008 0.543798 0.979313
1.036008 0.533839 0.954587
1.084159 0.536551 0.954587
1.084159 0.542076 0.979313
1.132309 0.540354 0.979313
1.132309 0.539263 0.954587
1.180460 0.541975 0.954587
1.180460 0.538632 0.979313
1.228611 0.552465 0.929862
1.228611 0.560243 0.905136
1.276762 0.571823 0.905136
1.276762 0.559611 0.929862
1.228611 0.536910 0.979313
1.228611 0.544688 0.954587
1.276762 0.547400 0.954587
1.276762 0.535188 0.979313
1.324914 0.533466 0.979313
1.324913 0.550112 0.954587
1.373064 0.552824 0.954587
1.373064 0.531744 0.979313
1.228611 0.508230 1.127667
1.228611 0.498023 1.102941
1.276762 0.474130 1.102941
1.276762 0.488580 1.127667
1.228611 0.528645 1.177118
1.228611 0.518437 1.152393
1.276762 0.503030 1.152393
1.276762 0.517481 1.177118
1.324913 0.506317 1.177118
1.324913 0.487624 1.152393
1.373064 0.472217 1.152393
1.373064 0.495153 1.177118
1.228611 0.590586 1.325472
1.228611 0.579681 1.300747
1.276762 0.589732 1.300747
1.276762 0.596242 1.325472
1.180460 0.569630 1.300747
1.228611 0.569474 1.276021
1.180460 0.563665 1.276021
1.228611 0.612395 1.374924
1.228611 0.601490 1.350198
1.276762 0.602752 1.350198
1.276762 0.609262 1.374924
1.324913 0.606129 1.374924
1.324914 0.604014 1.350198
1.373064 0.605275 1.350198
1.373064 0.602996 1.374924
1.228611 0.593088 1.721083
1.228611 0.594455 1.696357
1.276762 0.574620 1.696357
1.276762 0.580091 1.721083
1.228611 0.590354 1.770534
1.228611 0.591721 1.745808
1.276762 0.585562 1.745808
1.276762 0.591033 1.770534
1.324913 0.591711 1.770534
1.324914 0.579403 1.745808
1.373064 0.573244 1.745808
1.373064 0.592390 1.770534
0.843404 0.579351 1.325472
0.843404 0.571251 1.300747
0.891555 0.557309 1.300747
0.891555 0.573668 1.325472
0.843404 0.595550 1.374924
0.843404 0.587450 1.350198
0.891555 0.590027 1.350198
0.891555 0.606387 1.374924
0.939706 0.617223 1.374924
0.939706 0.592604 1.350198
0.987857 0.595182 1.350198
0.987857 0.628060 1.374924
0.843404 0.647411 1.523278
0.843404 0.636050 1.498552
0.891555 0.688184 1.498552
0.891555 0.691640 1.523278
0.843404 0.670133 1.572729
0.843404 0.658772 1.548003
0.891555 0.695096 1.548003
0.891555 0.698553 1.572729
0.939706 0.726972 1.572729
0.939706 0.731421 1.548003
0.987857 0.767745 1.548003
