# .PCD v.7 - Point Cloud Data file format
VERSION .7
FIELDS x y z
SIZE 4 4 4
TYPE F F F
COUNT 1 1 1
WIDTH 1692
HEIGHT 1
POINTS 1692
DATA ascii
-0.116227 -0.091079 1.944810
-0.116227 -0.101893 1.920084
-0.068076 -0.125688 1.920084
-0.068076 -0.141967 1.895358
-0.116227 -0.112708 1.895358
-0.019925 -0.019031 2.068438
0.028226 -0.010044 2.068438
0.028226 -0.037250 2.043712
-0.019925 -0.040773 2.043712
-0.116227 -0.037006 2.068438
-0.068076 -0.028019 2.068438
-0.068076 -0.044297 2.043712
-0.116227 -0.047821 2.043712
-0.116227 -0.058635 2.018986
-0.068076 -0.060575 2.018986
-0.068076 -0.076854 1.994261
-0.116227 -0.069450 1.994261
0.172679 0.016919 2.068438
0.220830 0.025906 2.068438
0.220830 -0.023155 2.043712
0.172679 -0.026679 2.043712
0.076377 -0.001056 2.068438
0.124528 0.007931 2.068438
0.124528 -0.030202 2.043712
0.076377 -0.033726 2.043712
0.076377 -0.066396 2.018986
0.124528 -0.068336 2.018986
0.124528 -0.106469 1.994261
0.076377 -0.099065 1.994261
0.365282 -0.137114 1.969535
0.413433 -0.126039 1.969535
0.413433 -0.123113 1.944809
0.365282 -0.147184 1.944809
0.268981 -0.159264 1.969535
0.317132 -0.148189 1.969535
0.317132 -0.171256 1.944809
0.268981 -0.195328 1.944809
0.268981 -0.231392 1.920084
0.317131 -0.194324 1.920084
0.317131 -0.217391 1.895358
0.268981 -0.267456 1.895358
0.365282 -0.096833 2.068437
0.413433 -0.137746 2.068437
0.413433 -0.134819 2.043712
0.365282 -0.106903 2.043712
0.268981 -0.015007 2.068438
0.317132 -0.055920 2.068438
0.317132 -0.078987 2.043712
0.268981 -0.051071 2.043712
0.268981 -0.087135 2.018986
0.317132 -0.102054 2.018986
0.317132 -0.125122 1.994261
0.268981 -0.123199 1.994261
0.557886 -0.260485 2.068437
0.606037 -0.301398 2.068437
0.606037 -0.246484 2.043712
0.557886 -0.218568 2.043712
0.461584 -0.178659 2.068437
0.509735 -0.219572 2.068437
0.509735 -0.190652 2.043712
0.461584 -0.162735 2.043712
0.461584 -0.146812 2.018986
0.509735 -0.161731 2.018986
0.509735 -0.132810 1.994261
0.461584 -0.130888 1.994261
0.750490 -0.157935 1.969535
0.798641 -0.183333 1.969535
0.798641 -0.153858 1.944809
0.750490 -0.122100 1.944809
0.654188 -0.107139 1.969535
0.702339 -0.132537 1.969535
0.702339 -0.090342 1.944809
0.654188 -0.058584 1.944809
0.654188 -0.010029 1.920083
0.702339 -0.048147 1.920083
0.702339 -0.005952 1.895358
0.654188 0.038526 1.895358
0.750490 -0.301276 2.068437
0.798641 -0.301235 2.068437
0.798641 -0.271759 2.043712
0.750490 -0.265440 2.043712
0.654188 -0.301357 2.068437
0.702339 -0.301316 2.068437
0.702339 -0.259122 2.043712
0.654188 -0.252803 2.043712
0.654188 -0.204248 2.018986
0.702339 -0.216927 2.018986
0.702339 -0.174732 1.994260
0.654188 -0.155693 1.994260
0.943093 -0.301112 2.068437
0.991244 -0.301071 2.068437
0.991244 -0.297035 2.043712
0.943093 -0.290716 2.043712
0.846792 -0.301194 2.068437
0.894942 -0.301153 2.068437
0.894942 -0.284397 2.043712
0.846792 -0.278078 2.043712
0.846792 -0.254962 2.018986
0.894942 -0.267641 2.018986
0.894942 -0.250885 1.994260
0.846792 -0.231847 1.994260
-0.790340 -0.266144 1.771730
-0.742189 -0.262964 1.771730
-0.742189 -0.278988 1.747005
-0.790340 -0.285986 1.747005
-0.886641 -0.272504 1.771730
-0.838490 -0.269324 1.771730
-0.838490 -0.292984 1.747005
-0.886641 -0.299981 1.747005
-0.886641 -0.327458 1.722279
-0.838490 -0.316643 1.722279
-0.838490 -0.340302 1.697553
-0.886641 -0.354936 1.697553
-0.790340 -0.186779 1.870633
-0.742189 -0.198870 1.870633
-0.742189 -0.214894 1.845907
-0.790340 -0.206620 1.845907
-0.886641 -0.162595 1.870633
-0.838490 -0.174687 1.870633
-0.838490 -0.198346 1.845907
-0.886641 -0.190073 1.845907
-0.886641 -0.217550 1.821182
-0.838490 -0.222006 1.821182
-0.838490 -0.245665 1.796456
-0.886641 -0.245027 1.796456
-0.597736 -0.235146 1.870633
-0.549585 -0.247237 1.870633
-0.549585 -0.247989 1.845907
-0.597736 -0.239715 1.845907
-0.694038 -0.210962 1.870633
-0.645887 -0.223054 1.870633
-0.645887 -0.231441 1.845907
-0.694038 -0.223168 1.845907
-0.694038 -0.235373 1.821182
-0.645887 -0.239829 1.821182
-0.645887 -0.248217 1.796456
-0.694038 -0.247579 1.796456
-0.212529 -0.095980 1.870633
-0.164378 -0.074372 1.870633
-0.164378 -0.065296 1.845907
-0.212529 -0.088133 1.845907
-0.212529 -0.103828 1.895358
-0.164378 -0.083448 1.895358
-0.260679 -0.117588 1.870633
-0.212529 -0.088133 1.845907
-0.260679 -0.104350 1.821181
-0.116227 -0.055873 1.771730
-0.068076 -0.073679 1.771730
-0.068076 -0.060022 1.747004
-0.116227 -0.044506 1.747004
-0.068076 -0.046364 1.722279
-0.116227 -0.033140 1.722279
-0.068076 -0.032707 1.697553
-0.116227 -0.021773 1.697553
-0.116227 -0.067240 1.796455
-0.068076 -0.087337 1.796455
-0.116227 -0.078607 1.821181
-0.068076 -0.100994 1.821181
-0.116227 -0.089974 1.845907
-0.068076 -0.114652 1.845907
-0.116227 -0.101341 1.870633
-0.068076 -0.128309 1.870632
-0.116227 -0.112708 1.895358
-0.068076 -0.141967 1.895358
0.268980 -0.146211 1.771730
0.317131 -0.111908 1.771730
0.317131 -0.090811 1.747004
0.268980 -0.121962 1.747004
0.317131 -0.069714 1.722278
0.268980 -0.097713 1.722278
0.317131 -0.048618 1.697553
0.268980 -0.073463 1.697553
0.268981 -0.170460 1.796455
0.317131 -0.133004 1.796455
0.268981 -0.194709 1.821181
0.317131 -0.154101 1.821181
0.268981 -0.218958 1.845907
0.317131 -0.175197 1.845907
0.268981 -0.243207 1.870632
0.317131 -0.196294 1.870632
0.268981 -0.267456 1.895358
0.317131 -0.217391 1.895358
0.461584 -0.055555 1.870632
0.509735 -0.008641 1.870632
0.509735 -0.000155 1.845907
0.461584 -0.043915 1.845907
0.509735 0.008332 1.821181
0.461584 -0.032276 1.821181
0.509735 0.016819 1.796455
0.461584 -0.020637 1.796455
0.509735 0.025306 1.771730
0.461584 -0.008998 1.771730
0.509735 0.033792 1.747004
0.461584 0.002642 1.747004
0.509735 0.042279 1.722278
0.461584 0.014281 1.722278
0.509735 0.050766 1.697553
0.461584 0.025920 1.697553
0.461584 -0.067194 1.895358
0.509735 -0.017128 1.895358
0.750490 0.023055 1.771730
0.798640 -0.000564 1.771730
0.798640 0.018305 1.747004
0.750490 0.037752 1.747004
0.654188 0.070293 1.771730
0.702339 0.046674 1.771730
0.702339 0.057199 1.747004
0.654188 0.076647 1.747004
0.654188 0.083000 1.722278
0.702339 0.067724 1.722278
0.702339 0.078250 1.697553
0.654188 0.089354 1.697553
0.750490 -0.035732 1.870632
0.798641 -0.076038 1.870632
0.798641 -0.057170 1.845907
0.750490 -0.021036 1.845907
0.654188 0.044879 1.870632
0.702339 0.004573 1.870632
0.702339 0.015099 1.845907
0.654188 0.051233 1.845907
0.654188 0.057586 1.821181
0.702339 0.025624 1.821181
0.702339 0.036149 1.796455
0.654188 0.063940 1.796455
0.846792 -0.116344 1.870632
0.894942 -0.156650 1.870632
0.894942 -0.129438 1.845906
0.846792 -0.093304 1.845906
0.894942 -0.102226 1.821181
0.846792 -0.070263 1.821181
0.846792 -0.139384 1.895358
0.894942 -0.183862 1.895358
0.798641 -0.124382 1.920083
0.846792 -0.162500 1.920083
0.798641 -0.094907 1.895358
0.846792 -0.070263 1.821181
0.894942 -0.102226 1.821181
0.894942 -0.075014 1.796455
0.846791 -0.047223 1.796455
-1.271849 -0.275870 1.573925
-1.223698 -0.288122 1.573925
-1.223698 -0.296293 1.549199
-1.271849 -0.285668 1.549199
-1.223698 -0.304465 1.524474
-1.271849 -0.295465 1.524474
-1.223698 -0.312636 1.499748
-1.271849 -0.305263 1.499748
-1.271849 -0.266072 1.598651
-1.223698 -0.279950 1.598651
-1.271849 -0.256274 1.623376
-1.223698 -0.271779 1.623376
-1.271849 -0.246476 1.648102
-1.223698 -0.263607 1.648102
-1.271849 -0.236678 1.672828
-1.223698 -0.255436 1.672828
-1.271849 -0.226880 1.697553
-1.223698 -0.247264 1.697553
-1.079245 -0.311709 1.672828
-1.031094 -0.330467 1.672828
-1.031094 -0.332133 1.648102
-1.079245 -0.315002 1.648102
-1.031094 -0.333799 1.623376
-1.079245 -0.318294 1.623376
-1.031094 -0.335465 1.598651
-1.079245 -0.321586 1.598651
-1.031094 -0.337131 1.573925
-1.079245 -0.324879 1.573925
-1.031094 -0.338797 1.549199
-1.079245 -0.328171 1.549199
-1.031094 -0.340463 1.524474
-1.079245 -0.331463 1.524474
-1.031094 -0.342129 1.499748
-1.079245 -0.334756 1.499748
-1.079245 -0.308417 1.697553
-1.031094 -0.328801 1.697553
-0.308830 -0.091803 1.672827
-0.260680 -0.059103 1.672827
-0.260680 -0.046952 1.648102
-0.308830 -0.082145 1.648102
-0.260680 -0.034801 1.623376
-0.308830 -0.072486 1.623376
-0.260680 -0.022650 1.598651
-0.308830 -0.062827 1.598651
-0.260680 -0.010499 1.573925
-0.308831 -0.053169 1.573925
-0.260680 0.001652 1.549199
-0.308831 -0.043510 1.549199
-0.260680 0.013803 1.524474
-0.308831 -0.033851 1.524474
-0.260680 0.025954 1.499748
-0.308831 -0.024193 1.499748
-0.308830 -0.101462 1.697553
-0.260680 -0.071254 1.697553
-0.116227 0.068812 1.573925
-0.068076 0.062785 1.573925
-0.068076 0.081883 1.549199
-0.116227 0.086929 1.549199
-0.068076 0.100981 1.524474
-0.116227 0.105046 1.524474
-0.068076 0.120079 1.499748
-0.116227 0.123163 1.499748
-0.164378 0.091976 1.549199
-0.164378 0.109111 1.524474
-0.164378 0.126247 1.499748
-0.116227 0.050695 1.598650
-0.068076 0.043686 1.598650
-0.116227 0.032578 1.623376
-0.068076 0.024588 1.623376
-0.116227 0.014461 1.648102
-0.068076 0.005490 1.648102
-0.116227 -0.003656 1.672827
-0.068076 -0.013608 1.672827
-0.164378 0.023432 1.648102
-0.164378 0.040568 1.623376
-0.164378 0.057704 1.598650
-0.116227 -0.021773 1.697553
-0.068076 -0.032707 1.697553
-0.164378 -0.010839 1.697553
-0.164378 0.006297 1.672827
-0.019925 -0.043640 1.697553
0.365282 -0.041101 1.573924
0.413433 -0.063674 1.573924
0.413433 -0.076623 1.549199
0.365282 -0.044566 1.549199
0.268980 0.004046 1.573925
0.317131 -0.018527 1.573925
0.317131 -0.012509 1.549199
0.268980 0.019548 1.549199
0.268980 0.035049 1.524473
0.317131 -0.006491 1.524473
0.317131 -0.000473 1.499748
0.268980 0.050551 1.499748
0.365282 -0.027237 1.672827
0.413433 -0.011875 1.672827
0.413433 -0.024825 1.648101
0.365282 -0.030703 1.648101
0.268980 -0.057962 1.672827
0.317131 -0.042600 1.672827
0.317131 -0.036582 1.648101
0.268980 -0.042460 1.648101
0.268980 -0.026958 1.623376
0.317131 -0.030563 1.623376
0.317131 -0.024545 1.598650
0.268980 -0.011456 1.598650
0.557886 0.034211 1.672827
0.606037 0.049573 1.672827
0.606037 -0.001312 1.648101
0.557886 -0.007190 1.648101
0.654188 0.003393 1.648101
0.654188 -0.039587 1.623376
0.606037 -0.052197 1.623376
0.461584 0.003487 1.672827
0.509735 0.018849 1.672827
0.509735 -0.013069 1.648101
0.461584 -0.018947 1.648101
0.461584 -0.041380 1.623376
0.509735 -0.044986 1.623376
0.509735 -0.076903 1.598650
0.461584 -0.063814 1.598650
0.750490 -0.068707 1.573924
0.798640 -0.040287 1.573924
0.798640 -0.059553 1.549199
0.750490 -0.095877 1.549199
0.654188 -0.125547 1.573924
0.702339 -0.097127 1.573924
0.702339 -0.132202 1.549199
0.654188 -0.168527 1.549199
0.654188 -0.211506 1.524473
0.702339 -0.167277 1.524473
0.702339 -0.202353 1.499747
0.654188 -0.254487 1.499747
0.750490 0.039975 1.672827
0.798640 0.036776 1.672827
0.798640 0.017510 1.648101
0.750490 0.012805 1.648101
0.654188 0.046373 1.672827
0.702339 0.043174 1.672827
0.702339 0.008099 1.648101
0.654188 0.003393 1.648101
0.654188 -0.039587 1.623376
0.702339 -0.026976 1.623376
0.702339 -0.062051 1.598650
0.654188 -0.082566 1.598650
0.943093 0.027178 1.672827
0.991244 0.023979 1.672827
0.991244 0.036332 1.648101
0.943093 0.031627 1.648101
0.846791 0.033577 1.672827
0.894942 0.030378 1.672827
0.894942 0.026921 1.648101
0.846791 0.022216 1.648101
0.846791 0.010855 1.623376
0.894942 0.023465 1.623376
0.894942 0.020009 1.598650
0.846791 -0.000506 1.598650
-1.175547 -0.268771 1.376120
-1.127396 -0.259157 1.376120
-1.127396 -0.245512 1.351394
-1.175547 -0.258523 1.351394
-1.271849 -0.287998 1.376120
-1.223698 -0.278384 1.376120
-1.223698 -0.271534 1.351394
-1.271849 -0.284545 1.351394
-1.271849 -0.281092 1.326669
-1.223698 -0.264683 1.326669
-1.223698 -0.257833 1.301943
-1.271849 -0.277639 1.301943
-1.175547 -0.309762 1.475022
-1.127396 -0.313738 1.475022
-1.127396 -0.300092 1.450297
-1.175547 -0.299514 1.450297
-1.271849 -0.301810 1.475023
-1.223698 -0.305786 1.475022
-1.223698 -0.298936 1.450297
-1.271849 -0.298357 1.450297
-1.271849 -0.294904 1.425571
-1.223698 -0.292085 1.425571
-1.223698 -0.285235 1.400846
-1.271849 -0.291451 1.400846
-0.982943 -0.325665 1.475022
-0.934792 -0.329641 1.475022
-0.934792 -0.302406 1.450297
-0.982943 -0.301828 1.450297
-0.886641 -0.301497 1.450297
-0.886641 -0.278930 1.425571
-0.934792 -0.275172 1.425571
-0.982943 -0.301828 1.450297
-0.934792 -0.302406 1.450297
-0.982943 -0.277991 1.425571
-0.934792 -0.329641 1.475022
-0.886641 -0.301497 1.450297
-0.886641 -0.324064 1.475022
-1.079245 -0.317713 1.475022
-1.031094 -0.321689 1.475022
-1.031094 -0.301249 1.450297
-1.079245 -0.300671 1.450297
-1.079245 -0.283629 1.425571
-1.031094 -0.280810 1.425571
-1.031094 -0.260370 1.400845
-1.079245 -0.266586 1.400845
-0.790340 -0.259983 1.376120
-0.742189 -0.273076 1.376120
-0.742189 -0.264511 1.351394
-0.790340 -0.246750 1.351394
-0.886642 -0.233796 1.376120
-0.838491 -0.246890 1.376120
-0.838491 -0.228990 1.351394
-0.886642 -0.211229 1.351394
-0.886642 -0.188662 1.326668
-0.838491 -0.211090 1.326668
-0.838491 -0.193191 1.301943
-0.886642 -0.166095 1.301943
-0.790340 -0.312912 1.475022
-0.742189 -0.307335 1.475022
-0.742189 -0.298771 1.450297
-0.790340 -0.299679 1.450297
-0.886641 -0.324064 1.475022
-0.838491 -0.318488 1.475022
-0.838491 -0.300588 1.450297
-0.886641 -0.301497 1.450297
-0.886641 -0.278930 1.425571
-0.838491 -0.282689 1.425571
-0.838491 -0.264789 1.400845
-0.886641 -0.256363 1.400845
-0.597736 -0.290607 1.475022
-0.549585 -0.285030 1.475022
-0.549585 -0.295135 1.450297
-0.597736 -0.296044 1.450297
-0.694038 -0.301759 1.475022
-0.645887 -0.296183 1.475022
-0.645887 -0.296953 1.450297
-0.694038 -0.297862 1.450297
-0.694038 -0.293964 1.425571
-0.645887 -0.297723 1.425571
-0.645887 -0.298492 1.400845
-0.694038 -0.290067 1.400845
-0.116227 0.008438 1.376119
-0.068076 -0.009374 1.376119
-0.068076 -0.035265 1.351394
-0.116227 -0.014507 1.351394
-0.068076 -0.061156 1.326668
-0.116227 -0.037452 1.326668
-0.068076 -0.087046 1.301942
-0.116227 -0.060397 1.301942
-0.116227 0.031383 1.400845
-0.068076 0.016517 1.400845
-0.116227 0.054328 1.425571
-0.068076 0.042407 1.425571
-0.116227 0.077273 1.450296
-0.068076 0.068298 1.450296
-0.116227 0.100218 1.475022
-0.068076 0.094189 1.475022
-0.116227 0.123163 1.499748
-0.068076 0.120079 1.499748
0.365282 -0.125393 1.376119
0.413433 -0.128441 1.376119
0.413433 -0.133624 1.351394
0.365282 -0.140172 1.351394
0.268980 -0.119297 1.376119
0.317131 -0.122345 1.376119
0.317131 -0.146719 1.351394
0.268980 -0.153266 1.351394
0.268980 -0.187236 1.326668
0.317131 -0.171093 1.326668
0.317131 -0.195467 1.301942
0.268980 -0.221205 1.301942
0.365282 -0.066277 1.475022
0.413433 -0.107706 1.475022
0.413433 -0.112890 1.450296
0.365282 -0.081056 1.450296
0.268980 0.016582 1.475022
0.317131 -0.024848 1.475022
0.317131 -0.049222 1.450296
0.268980 -0.017388 1.450296
0.268980 -0.051357 1.425571
0.317131 -0.073596 1.425571
0.317131 -0.097970 1.400845
0.268980 -0.085327 1.400845
0.557886 -0.231994 1.475022
0.606037 -0.273423 1.475022
0.606037 -0.240225 1.450296
0.557886 -0.208391 1.450296
0.461584 -0.149135 1.475022
0.509735 -0.190565 1.475022
0.509735 -0.176557 1.450296
0.461584 -0.144724 1.450296
0.461584 -0.140312 1.425571
0.509735 -0.162551 1.425571
0.509735 -0.148544 1.400845
0.461584 -0.135900 1.400845
0.750489 -0.108123 1.376119
0.798640 -0.097286 1.376119
0.798640 -0.097127 1.351394
0.750489 -0.099704 1.351394
0.654187 -0.129796 1.376119
0.702338 -0.118959 1.376119
0.702338 -0.102281 1.351394
0.654187 -0.104858 1.351394
0.654187 -0.079920 1.326668
0.702338 -0.085602 1.326668
0.702338 -0.068924 1.301942
0.654187 -0.054982 1.301942
0.750490 -0.141799 1.475022
0.798640 -0.097925 1.475022
0.798640 -0.097765 1.450296
0.750490 -0.133380 1.450296
0.654188 -0.229548 1.475022
0.702339 -0.185674 1.475022
0.702339 -0.168995 1.450296
0.654188 -0.204610 1.450296
0.654188 -0.179672 1.425571
0.702339 -0.152317 1.425571
0.702339 -0.135638 1.400845
0.654188 -0.154734 1.400845
0.943093 0.033699 1.475022
0.991244 0.077573 1.475022
0.991244 0.044695 1.450296
0.943093 0.009080 1.450296
0.846791 -0.054050 1.475022
0.894942 -0.010176 1.475022
0.894942 -0.026535 1.450296
0.846791 -0.062150 1.450296
0.846791 -0.070250 1.425571
0.894942 -0.042895 1.425570
0.894942 -0.059254 1.400845
0.846791 -0.078350 1.400845
-1.175547 -0.154211 1.178315
-1.127396 -0.171214 1.178315
-1.127396 -0.161812 1.153589
-1.175547 -0.137447 1.153589
-1.271849 -0.120205 1.178315
-1.223698 -0.137208 1.178315
-1.223698 -0.113083 1.153589
-1.271849 -0.088718 1.153589
-1.271849 -0.057231 1.128863
-1.223698 -0.088958 1.128863
-1.223698 -0.064832 1.104138
-1.271849 -0.025744 1.104138
-1.175547 -0.221264 1.277217
-1.127396 -0.208820 1.277217
-1.127396 -0.199419 1.252492
-1.175547 -0.204501 1.252492
-1.271849 -0.246152 1.277217
-1.223698 -0.233708 1.277217
-1.223698 -0.209583 1.252492
-1.271849 -0.214665 1.252492
-1.271849 -0.183178 1.227766
-1.223698 -0.185458 1.227766
-1.223698 -0.161333 1.203040
-1.271849 -0.151691 1.203040
-0.982943 -0.171489 1.277217
-0.934792 -0.159045 1.277217
-0.934792 -0.179090 1.252492
-0.982943 -0.184173 1.252492
-1.079245 -0.196377 1.277217
-1.031094 -0.183933 1.277217
-1.031094 -0.189255 1.252492
-1.079245 -0.194337 1.252492
-1.079245 -0.192297 1.227766
-1.031094 -0.194576 1.227766
-1.031094 -0.199898 1.203040
-1.079245 -0.190257 1.203040
-0.790340 -0.263320 1.178315
-0.742189 -0.271352 1.178315
-0.742189 -0.276146 1.153589
-0.790340 -0.271927 1.153589
-0.886642 -0.247257 1.178315
-0.838491 -0.255289 1.178315
-0.838491 -0.267709 1.153589
-0.886642 -0.263490 1.153589
-0.886642 -0.279722 1.128863
-0.838491 -0.280128 1.128863
-0.838491 -0.292548 1.104138
-0.886642 -0.295955 1.104138
-0.790340 -0.228893 1.277217
-0.742189 -0.252175 1.277217
-0.742189 -0.256969 1.252491
-0.790340 -0.237500 1.252491
-0.886642 -0.182328 1.277217
-0.838491 -0.205610 1.277217
-0.838491 -0.218030 1.252491
-0.886642 -0.198560 1.252492
-0.886642 -0.214793 1.227766
-0.838491 -0.230450 1.227766
-0.838491 -0.242869 1.203040
-0.886642 -0.231025 1.203040
-0.597736 -0.322023 1.277217
-0.549585 -0.345305 1.277217
-0.549585 -0.334848 1.252491
-0.597736 -0.315379 1.252491
-0.694038 -0.275458 1.277217
-0.645887 -0.298740 1.277217
-0.645887 -0.295909 1.252491
-0.694038 -0.276439 1.252491
-0.694038 -0.277421 1.227766
-0.645887 -0.293078 1.227766
-0.645887 -0.290246 1.203040
-0.694038 -0.278402 1.203040
-0.019925 0.015506 1.178314
0.028226 0.009044 1.178314
0.028226 0.038921 1.153589
-0.019925 0.041346 1.153589
-0.116227 0.028430 1.178314
-0.068076 0.021968 1.178314
-0.068076 0.043771 1.153589
-0.116227 0.046196 1.153589
-0.116227 0.063961 1.128863
-0.068076 0.065574 1.128863
-0.068076 0.087377 1.104137
-0.116227 0.081726 1.104137
-0.019925 -0.087855 1.277217
0.028226 -0.110467 1.277217
0.028226 -0.080590 1.252491
-0.019925 -0.062015 1.252491
-0.116227 -0.042631 1.277217
-0.068076 -0.065243 1.277217
-0.068076 -0.043441 1.252491
-0.116227 -0.024866 1.252491
-0.116227 -0.007101 1.227766
-0.068076 -0.021638 1.227766
-0.068076 0.000165 1.203040
-0.116227 0.010665 1.203040
0.076377 -0.133080 1.277217
0.124528 -0.155692 1.277217
0.124528 -0.117739 1.252491
0.076377 -0.099164 1.252491
0.124528 -0.079786 1.227765
0.076377 -0.065249 1.227765
0.124527 -0.041833 1.203040
0.076377 -0.031334 1.203040
0.124527 -0.003881 1.178314
0.076377 0.002581 1.178314
0.124527 0.034072 1.153589
0.076377 0.036497 1.153589
0.124527 0.072025 1.128863
0.076377 0.070412 1.128863
0.124527 0.109977 1.104137
0.076377 0.104327 1.104137
0.076377 -0.166995 1.301942
0.124528 -0.193644 1.301942
0.365282 -0.005469 1.178314
0.413433 -0.001691 1.178314
0.413433 0.026769 1.153588
0.365282 0.027383 1.153588
0.268980 -0.013027 1.178314
0.317131 -0.009248 1.178314
0.317131 0.027996 1.153588
0.268980 0.028609 1.153588
0.220829 -0.016805 1.178314
0.220829 -0.062833 1.203040
0.268980 -0.013027 1.178314
0.268980 -0.054662 1.203040
0.317131 -0.009248 1.178314
0.317131 -0.046492 1.203040
0.220829 -0.108860 1.227765
0.268980 -0.054662 1.203040
0.268980 -0.096298 1.227765
0.220829 -0.154888 1.252491
0.268980 -0.137934 1.252491
0.220829 -0.200916 1.277217
0.268980 -0.179570 1.277217
0.220829 -0.246943 1.301942
0.268980 -0.221205 1.301942
0.268980 -0.096298 1.227765
0.317131 -0.046492 1.203040
0.317131 -0.083736 1.227765
0.268980 -0.137934 1.252491
0.317131 -0.120980 1.252491
0.268980 -0.179570 1.277217
0.317131 -0.158224 1.277217
0.268980 -0.221205 1.301942
0.317131 -0.195467 1.301942
0.268980 0.070245 1.128863
0.317131 0.065240 1.128863
0.317131 0.102484 1.104137
0.268980 0.111881 1.104137
0.220829 0.121278 1.104137
0.365282 -0.136877 1.277217
0.413433 -0.115531 1.277217
0.413433 -0.087071 1.252491
0.365282 -0.104025 1.252491
0.557886 -0.051493 1.277217
0.606037 -0.030147 1.277217
0.606037 -0.019254 1.252491
0.557886 -0.036209 1.252491
0.461584 -0.094185 1.277217
0.509735 -0.072839 1.277217
0.509735 -0.053163 1.252491
0.461584 -0.070117 1.252491
0.461584 -0.046049 1.227765
0.509735 -0.033486 1.227765
0.509735 -0.013810 1.203040
0.461584 -0.021980 1.203040
-0.019925 0.047803 0.980509
0.028226 0.028360 0.980509
0.028226 0.014297 0.955783
-0.019925 0.038758 0.955783
-0.116227 0.086688 0.980509
-0.068076 0.067245 0.980509
-0.068076 0.063219 0.955783
-0.116227 0.087680 0.955783
-0.116227 0.088672 0.931058
-0.068076 0.059193 0.931058
-0.068076 0.055167 0.906332
-0.116227 0.089665 0.906332
-0.019925 0.083982 1.079412
0.028226 0.084614 1.079412
0.028226 0.070550 1.054686
-0.019925 0.074937 1.054686
-0.116227 0.082719 1.079412
-0.068076 0.083350 1.079412
-0.068076 0.079324 1.054686
-0.116227 0.083711 1.054686
-0.116227 0.084703 1.029960
-0.068076 0.075298 1.029960
-0.068076 0.071272 1.005235
-0.116227 0.085696 1.005235
0.172678 0.086509 1.079412
0.220829 0.087140 1.079412
0.220829 0.053003 1.054686
0.172678 0.057390 1.054686
0.076377 0.085245 1.079412
0.124527 0.085877 1.079412
0.124527 0.061776 1.054686
0.076377 0.066163 1.054686
0.076377 0.047081 1.029960
0.124527 0.037676 1.029960
0.124527 0.013576 1.005235
0.076376 0.028000 1.005235
0.268980 -0.058224 0.980509
0.317131 -0.067039 0.980509
0.317131 -0.100944 0.955783
0.268980 -0.092246 0.955783
0.317131 -0.134848 0.931058
0.268980 -0.126267 0.931058
0.317131 -0.168753 0.906332
0.268980 -0.160288 0.906332
0.220829 -0.083548 0.955783
0.220829 -0.117685 0.931058
0.220829 -0.151823 0.906332
0.268980 -0.024203 1.005235
0.317131 -0.033134 1.005235
0.268980 0.009818 1.029960
0.317131 0.000770 1.029960
0.268980 0.043839 1.054686
0.317131 0.034675 1.054686
0.268980 0.077860 1.079411
0.317131 0.068579 1.079411
0.220829 0.053003 1.054686
0.220829 0.018865 1.029960
0.220829 -0.015272 1.005235
0.268980 0.111881 1.104137
0.317131 0.102484 1.104137
0.220829 0.121278 1.104137
0.220829 0.087140 1.079412
0.365282 0.093087 1.104137
0.172678 0.057390 1.054686
0.172678 0.028271 1.029960
0.220829 -0.049410 0.980509
0.846791 -0.044480 1.079411
0.894942 -0.055956 1.079411
0.894942 -0.075052 1.054686
0.846791 -0.065928 1.054686
0.894942 -0.094148 1.029960
0.846791 -0.087376 1.029960
0.894942 -0.113245 1.005234
0.846791 -0.108824 1.005234
0.894942 -0.132341 0.980509
0.846791 -0.130272 0.980509
0.894942 -0.151438 0.955783
0.846791 -0.151720 0.955783
0.894942 -0.170534 0.931057
0.846791 -0.173168 0.931057
0.894942 -0.189631 0.906332
0.846791 -0.194616 0.906332
0.846791 -0.023032 1.104137
0.894942 -0.036859 1.104137
-1.175547 -0.216471 0.782704
-1.127396 -0.202688 0.782704
-1.127396 -0.194813 0.757978
-1.175547 -0.216504 0.757978
-1.271849 -0.244037 0.782704
-1.223698 -0.230254 0.782704
-1.223698 -0.238195 0.757978
-1.271849 -0.259886 0.757978
-1.271849 -0.275735 0.733253
-1.223698 -0.246136 0.733253
-1.223698 -0.254078 0.708527
-1.271849 -0.291584 0.708527
-1.175547 -0.216337 0.881607
-1.127396 -0.234186 0.881607
-1.127396 -0.226311 0.856881
-1.175547 -0.216371 0.856881
-1.271849 -0.180640 0.881607
-1.223698 -0.198489 0.881607
-1.223698 -0.206430 0.856881
-1.271849 -0.196489 0.856881
-1.271849 -0.212338 0.832155
-1.223698 -0.214371 0.832155
-1.223698 -0.222313 0.807430
-1.271849 -0.228188 0.807430
-0.982943 -0.287732 0.881607
-0.934793 -0.305580 0.881607
-0.934793 -0.266074 0.856881
-0.982944 -0.256133 0.856881
-1.079245 -0.252034 0.881607
-1.031094 -0.269883 0.881607
-1.031094 -0.246193 0.856881
-1.079245 -0.236252 0.856881
-1.079245 -0.220470 0.832155
-1.031094 -0.222502 0.832155
-1.031094 -0.198812 0.807430
-1.079245 -0.204687 0.807430
-0.790340 -0.199368 0.782704
-0.742189 -0.216638 0.782704
-0.742189 -0.194776 0.757978
-0.790340 -0.173094 0.757978
-0.886642 -0.164826 0.782704
-0.838491 -0.182097 0.782704
-0.838491 -0.151413 0.757978
-0.886642 -0.129731 0.757978
-0.886642 -0.094636 0.733253
-0.838491 -0.120728 0.733253
-0.838491 -0.090044 0.708527
-0.886642 -0.059541 0.708527
-0.790340 -0.304462 0.881606
-0.742189 -0.304089 0.881606
-0.742189 -0.282226 0.856881
-0.790340 -0.278188 0.856881
-0.886642 -0.305207 0.881607
-0.838491 -0.304834 0.881607
-0.838491 -0.274150 0.856881
-0.886642 -0.270112 0.856881
-0.886642 -0.235017 0.832155
-0.838491 -0.243466 0.832155
-0.838491 -0.212781 0.807430
-0.886642 -0.199922 0.807430
-0.597736 -0.302970 0.881606
-0.549585 -0.302597 0.881606
-0.549585 -0.298378 0.856881
-0.597736 -0.294340 0.856881
-0.694038 -0.303716 0.881606
-0.645887 -0.303343 0.881606
-0.645887 -0.290302 0.856881
-0.694038 -0.286264 0.856881
-0.694038 -0.268812 0.832155
-0.645887 -0.277261 0.832155
-0.645887 -0.264220 0.807430
-0.694038 -0.251361 0.807430
-0.405133 -0.180961 0.782703
-0.356982 -0.146041 0.782703
-0.356982 -0.156984 0.757978
-0.405133 -0.188113 0.757978
-0.501435 -0.250801 0.782704
-0.453284 -0.215881 0.782703
-0.453284 -0.219243 0.757978
-0.501435 -0.250372 0.757978
-0.501435 -0.249943 0.733252
-0.453284 -0.222605 0.733252
-0.453284 -0.225966 0.708526
-0.501435 -0.249515 0.708526
-0.308831 -0.052188 0.881606
-0.260680 -0.002106 0.881606
-0.260680 -0.020630 0.856881
-0.308831 -0.066921 0.856881
-0.260680 -0.039154 0.832155
-0.308831 -0.081654 0.832155
-0.260680 -0.057677 0.807429
-0.308831 -0.096388 0.807429
-0.260680 -0.076201 0.782703
-0.308831 -0.111121 0.782703
-0.260680 -0.094725 0.757978
-0.308831 -0.125855 0.757978
-0.308831 -0.037454 0.906332
-0.260680 0.016418 0.906332
-0.116227 -0.027079 0.782703
-0.068076 -0.047797 0.782703
-0.068076 -0.068389 0.757978
-0.116227 -0.050428 0.757978
-0.068076 -0.088982 0.733252
-0.116227 -0.073777 0.733252
-0.068077 -0.109575 0.708526
-0.116227 -0.097126 0.708526
-0.116227 -0.003730 0.807429
-0.068076 -0.027204 0.807429
-0.116227 0.019618 0.832155
-0.068076 -0.006611 0.832155
-0.116227 0.042967 0.856881
-0.068076 0.013981 0.856881
-0.116227 0.066316 0.881606
-0.068076 0.034574 0.881606
-0.116227 0.089665 0.906332
-0.068076 0.055167 0.906332
0.076376 -0.060652 0.881606
0.124527 -0.092394 0.881606
0.124527 -0.101963 0.856881
0.076376 -0.072977 0.856881
0.124527 -0.111531 0.832155
0.076376 -0.085301 0.832155
0.124527 -0.121099 0.807429
0.076376 -0.097625 0.807429
0.124527 -0.130667 0.782703
0.076376 -0.109950 0.782703
0.124527 -0.140236 0.757978
0.076376 -0.122274 0.757978
0.124527 -0.149804 0.733252
0.076376 -0.134598 0.733252
0.076376 -0.048328 0.906332
0.124527 -0.082826 0.906332
0.365282 -0.124071 0.782703
0.413433 -0.108060 0.782703
0.413433 -0.092536 0.757978
0.365282 -0.113441 0.757978
0.268980 -0.156092 0.782703
0.317131 -0.140081 0.782703
0.317131 -0.134347 0.757978
0.268980 -0.155253 0.757978
0.268980 -0.154414 0.733252
0.317131 -0.128613 0.733252
0.317131 -0.122879 0.708526
0.268980 -0.153575 0.708526
0.365282 -0.166588 0.881606
0.413433 -0.170158 0.881606
0.413433 -0.154634 0.856881
0.365282 -0.155959 0.856881
0.268980 -0.159448 0.881606
0.317131 -0.163018 0.881606
0.317131 -0.157284 0.856881
0.268980 -0.158609 0.856881
0.268980 -0.157770 0.832155
0.317131 -0.151550 0.832155
0.317131 -0.145816 0.807429
0.268980 -0.156931 0.807429
0.557886 -0.180868 0.881606
0.606036 -0.184438 0.881606
0.606036 -0.149333 0.856881
0.557885 -0.150658 0.856881
0.654187 -0.156257 0.856881
0.654187 -0.185407 0.881606
0.606036 -0.219543 0.906332
0.654187 -0.185407 0.881606
0.654187 -0.214557 0.906332
0.461584 -0.173728 0.881606
0.509735 -0.177298 0.881606
0.509735 -0.151983 0.856881
0.461584 -0.153309 0.856881
0.461584 -0.132889 0.832155
0.509735 -0.126669 0.832155
0.509734 -0.101354 0.807429
0.461584 -0.112469 0.807429
0.750489 -0.118382 0.782703
0.798640 -0.143170 0.782703
0.798640 -0.131884 0.757978
0.750489 -0.101141 0.757978
0.654187 -0.068806 0.782703
0.702338 -0.093594 0.782703
0.702338 -0.070398 0.757978
0.654187 -0.039656 0.757978
0.654187 -0.010505 0.733252
0.702338 -0.047203 0.733252
0.702338 -0.024007 0.708526
0.654187 0.018645 0.708526
0.750489 -0.187346 0.881606
0.798640 -0.188315 0.881606
0.798640 -0.177029 0.856880
0.750489 -0.170105 0.856881
0.654187 -0.185407 0.881606
0.702338 -0.186376 0.881606
0.702338 -0.163181 0.856881
0.654187 -0.156257 0.856881
0.654187 -0.127107 0.832155
0.702338 -0.139985 0.832155
0.702338 -0.116790 0.807429
0.654187 -0.097956 0.807429
0.943093 -0.191223 0.881606
0.991244 -0.192192 0.881606
0.991244 -0.204725 0.856880
0.943093 -0.197801 0.856880
0.846791 -0.189284 0.881606
0.894942 -0.190254 0.881606
0.894942 -0.190877 0.856880
0.846791 -0.183953 0.856880
0.846791 -0.178621 0.832155
0.894942 -0.191500 0.832155
0.894942 -0.192123 0.807429
0.846791 -0.173290 0.807429
0.943093 -0.217534 0.782703
0.991244 -0.242322 0.782703
0.991244 -0.254855 0.757978
0.943093 -0.224112 0.757978
0.846791 -0.167958 0.782703
0.894942 -0.192746 0.782703
0.894942 -0.193370 0.757978
0.846791 -0.162627 0.757978
0.846791 -0.157295 0.733252
0.894942 -0.193993 0.733252
0.894942 -0.194616 0.708526
0.846791 -0.151964 0.708526
0.557885 -0.060028 0.782703
0.606036 -0.044018 0.782703
0.606036 -0.008913 0.757978
0.557885 -0.029819 0.757978
0.461584 -0.092050 0.782703
0.509734 -0.076039 0.782703
0.509734 -0.050724 0.757978
0.461584 -0.071630 0.757978
0.461583 -0.051210 0.733252
0.509734 -0.025410 0.733252
0.509734 -0.000095 0.708526
0.461583 -0.030791 0.708526
0.076376 -0.134598 0.733252
0.124527 -0.149804 0.733252
0.124527 -0.159372 0.708526
0.076376 -0.146923 0.708526
-0.308831 -0.140588 0.733252
-0.260680 -0.113249 0.733252
-0.260680 -0.131773 0.708526
-0.308831 -0.155321 0.708526
-0.597736 -0.268450 0.782704
-0.549585 -0.285721 0.782704
-0.549586 -0.281501 0.757978
-0.597736 -0.259820 0.757978
-0.694038 -0.233909 0.782704
-0.645887 -0.251179 0.782704
-0.645887 -0.238138 0.757978
-0.694038 -0.216457 0.757978
-0.694038 -0.199005 0.733253
-0.645887 -0.225098 0.733253
-0.645887 -0.212057 0.708527
-0.694038 -0.181553 0.708527
-0.982944 -0.161339 0.782704
-0.934793 -0.147556 0.782704
-0.934793 -0.108050 0.757978
-0.982944 -0.129741 0.757978
-1.079245 -0.188905 0.782704
-1.031094 -0.175122 0.782704
-1.031095 -0.151432 0.757978
-1.079245 -0.173122 0.757978
-1.079246 -0.157340 0.733253
-1.031095 -0.127741 0.733253
-1.031095 -0.104051 0.708527
-1.079246 -0.141558 0.708527
0.172678 -0.029967 0.980509
0.220829 -0.049410 0.980509
0.220829 -0.083548 0.955783
0.172678 -0.059086 0.955783
0.076376 0.008918 0.980509
0.124527 -0.010525 0.980509
0.124527 -0.034625 0.955783
0.076376 -0.010164 0.955783
0.076376 -0.029246 0.931058
0.124527 -0.058726 0.931058
0.124527 -0.082826 0.906332
0.076376 -0.048328 0.906332
0.557886 0.009645 1.178314
0.606037 0.013424 1.178314
0.606037 0.024316 1.153588
0.557886 0.024930 1.153588
0.461584 0.002088 1.178314
0.509735 0.005867 1.178314
0.509735 0.025543 1.153588
0.461584 0.026156 1.153588
0.461584 0.050224 1.128863
0.509735 0.045219 1.128863
0.509735 0.064896 1.104137
0.461584 0.074293 1.104137
-0.597736 -0.295446 1.178314
-0.549585 -0.303478 1.178314
-0.549585 -0.293021 1.153589
-0.597736 -0.288802 1.153589
-0.694038 -0.279383 1.178314
-0.645887 -0.287415 1.178314
-0.645887 -0.284583 1.153589
-0.694038 -0.280365 1.153589
-0.694038 -0.281346 1.128863
-0.645887 -0.281752 1.128863
-0.645887 -0.278920 1.104138
-0.694038 -0.282327 1.104138
-0.982943 -0.222223 1.178315
-0.934792 -0.239226 1.178315
-0.934792 -0.259271 1.153589
-0.982943 -0.234906 1.153589
-1.079245 -0.188217 1.178315
-1.031094 -0.205220 1.178315
-1.031094 -0.210542 1.153589
-1.079245 -0.186177 1.153589
-1.079245 -0.184137 1.128863
-1.031094 -0.215863 1.128863
-1.031094 -0.221185 1.104138
-1.079245 -0.182097 1.104138
0.943093 -0.064777 1.376119
0.991244 -0.053940 1.376119
0.991244 -0.086818 1.351394
0.943093 -0.089396 1.351394
0.846791 -0.086450 1.376119
0.894942 -0.075613 1.376119
0.894942 -0.091973 1.351394
0.846791 -0.094550 1.351394
0.846791 -0.102650 1.326668
0.894942 -0.108332 1.326668
0.894942 -0.124691 1.301942
0.846791 -0.110749 1.301942
0.557886 -0.137585 1.376119
0.606037 -0.140633 1.376119
0.606037 -0.107435 1.351394
0.557886 -0.113982 1.351394
0.654187 -0.104858 1.351394
0.654187 -0.079920 1.326668
0.606037 -0.074237 1.326668
0.461584 -0.131489 1.376119
0.509735 -0.134537 1.376119
0.509735 -0.120530 1.351394
0.461584 -0.127077 1.351394
0.461584 -0.122665 1.326668
0.509735 -0.106523 1.326668
0.509735 -0.092516 1.301942
0.461584 -0.118254 1.301942
-0.597736 -0.312355 1.376120
-0.549585 -0.325449 1.376120
-0.549585 -0.335553 1.351394
-0.597736 -0.317793 1.351394
-0.694038 -0.286169 1.376120
-0.645887 -0.299262 1.376120
-0.645887 -0.300032 1.351394
-0.694038 -0.282271 1.351394
-0.694038 -0.278374 1.326668
-0.645887 -0.300802 1.326668
-0.645887 -0.301572 1.301943
-0.694038 -0.274477 1.301943
-0.645887 -0.298740 1.277217
-0.694038 -0.275458 1.277217
-1.079245 -0.249544 1.376120
-1.031094 -0.239930 1.376120
-1.031094 -0.219491 1.351394
-1.079245 -0.232501 1.351394
-1.079245 -0.215459 1.326669
-1.031094 -0.199051 1.326669
-1.031094 -0.178611 1.301943
-1.079245 -0.198417 1.301943
0.943093 0.044972 1.573924
0.991244 0.073392 1.573924
0.991244 0.085745 1.549199
0.943093 0.049421 1.549199
0.846791 -0.011867 1.573924
0.894942 0.016552 1.573924
0.894942 0.013096 1.549199
0.846791 -0.023228 1.549199
0.846791 -0.034589 1.524473
0.894942 0.009640 1.524473
0.894942 0.006184 1.499747
0.846791 -0.045950 1.499747
0.557886 -0.131393 1.573924
0.606037 -0.153966 1.573924
0.606037 -0.204851 1.549199
0.557886 -0.172794 1.549199
0.461584 -0.086247 1.573924
0.509735 -0.108820 1.573924
0.509735 -0.140737 1.549199
0.461584 -0.108680 1.549199
0.461584 -0.131114 1.524473
0.509735 -0.172654 1.524473
0.509735 -0.204571 1.499748
0.461584 -0.153547 1.499748
0.846791 -0.024183 1.771730
0.894942 -0.047802 1.771730
0.894942 -0.020590 1.747004
0.846791 -0.001143 1.747004
0.846791 0.021897 1.722278
0.894942 0.006622 1.722278
0.894942 0.033834 1.697553
0.846791 0.044938 1.697553
-0.597736 -0.253425 1.771730
-0.549585 -0.250245 1.771730
-0.549585 -0.250997 1.747005
-0.597736 -0.257995 1.747005
-0.694038 -0.259784 1.771730
-0.645887 -0.256605 1.771730
-0.645887 -0.264992 1.747005
-0.694038 -0.271990 1.747005
-0.694038 -0.284196 1.722279
-0.645887 -0.273380 1.722279
-0.645887 -0.281768 1.697553
-0.694038 -0.296401 1.697553
0.943093 -0.259527 1.969535
0.991244 -0.284926 1.969535
0.991244 -0.280889 1.944809
0.943093 -0.249131 1.944809
0.846792 -0.208731 1.969535
0.894942 -0.234129 1.969535
0.894942 -0.217373 1.944809
0.846792 -0.185616 1.944809
0.846792 -0.162500 1.920083
0.894942 -0.200618 1.920083
0.894942 -0.183862 1.895358
0.846792 -0.139384 1.895358
0.798641 -0.094907 1.895358
0.846792 -0.116344 1.870632
0.798641 -0.076038 1.870632
0.846792 -0.093304 1.845906
0.798641 -0.057170 1.845907
0.557886 -0.092815 1.969535
0.606037 -0.081740 1.969535
0.606037 -0.026826 1.944809
0.557886 -0.050898 1.944809
0.461584 -0.114965 1.969535
0.509735 -0.103890 1.969535
0.509735 -0.074969 1.944809
0.461584 -0.099041 1.944809
0.461584 -0.083117 1.920084
0.509735 -0.046049 1.920084
0.509735 -0.017128 1.895358
0.461584 -0.067194 1.895358
0.172679 -0.157471 1.969535
0.220830 -0.170339 1.969535
0.220830 -0.219400 1.944809
0.172679 -0.201068 1.944809
0.076377 -0.131735 1.969535
0.124528 -0.144603 1.969535
0.124528 -0.182737 1.944809
0.076377 -0.164405 1.944809
0.076377 -0.197075 1.920084
0.124528 -0.220870 1.920084
0.124528 -0.259004 1.895358
0.076377 -0.229744 1.895358
-0.982943 -0.101346 1.969536
-0.934792 -0.103901 1.969536
-0.934792 -0.109003 1.944810
-0.982943 -0.099879 1.944810
-1.079245 -0.096236 1.969536
-1.031094 -0.098791 1.969536
-1.031094 -0.090754 1.944810
-1.079245 -0.081630 1.944810
-1.079245 -0.067024 1.920084
-1.031094 -0.082718 1.920084
-1.031094 -0.074681 1.895359
-1.079245 -0.052418 1.895359
1.328300 -0.148534 0.980509
1.376451 -0.150256 0.980509
1.376451 -0.129176 0.955783
1.328300 -0.131888 0.955783
1.231998 -0.145090 0.980509
1.280149 -0.146812 0.980509
1.280149 -0.134600 0.955783
1.231998 -0.137312 0.955783
1.231998 -0.129535 0.931057
1.280149 -0.122389 0.931057
1.280149 -0.110177 0.906332
1.231998 -0.121757 0.906332
1.328300 -0.175683 1.178314
1.376451 -0.186847 1.178314
1.376451 -0.209783 1.153588
1.328300 -0.194376 1.153588
1.231998 -0.153355 1.178314
1.280149 -0.164519 1.178314
1.280149 -0.178970 1.153588
1.231998 -0.163563 1.153588
1.231998 -0.173770 1.128862
1.280149 -0.193420 1.128862
1.280149 -0.207870 1.104137
1.231998 -0.183977 1.104137
1.328300 -0.075871 1.376119
1.376451 -0.079004 1.376119
1.376451 -0.076725 1.351393
1.328300 -0.077986 1.351393
1.231998 -0.069605 1.376119
1.280149 -0.072738 1.376119
1.280149 -0.079248 1.351393
1.231998 -0.080510 1.351393
1.231998 -0.091415 1.326668
1.280149 -0.085758 1.326668
1.280149 -0.092268 1.301942
1.231998 -0.102319 1.301942
1.183848 -0.112370 1.301942
1.231998 -0.112526 1.277216
1.183848 -0.118335 1.277217
1.328301 -0.090289 1.771729
1.376451 -0.089610 1.771729
1.376451 -0.108756 1.747004
1.328301 -0.102597 1.747004
1.231999 -0.091646 1.771729
1.280150 -0.090967 1.771729
1.280150 -0.096438 1.747004
1.231999 -0.090279 1.747004
1.231999 -0.088912 1.722278
1.280150 -0.101909 1.722278
1.280150 -0.107380 1.697552
1.231999 -0.087545 1.697552
1.231999 -0.090279 1.747004
1.280150 -0.096438 1.747004
1.280150 -0.101909 1.722278
1.231999 -0.088912 1.722278
1.183848 -0.084120 1.747004
1.231999 -0.090279 1.747004
1.231999 -0.088912 1.722278
1.183848 -0.075916 1.722278
1.183848 -0.075916 1.722278
1.231999 -0.088912 1.722278
1.231999 -0.087545 1.697552
1.183848 -0.067711 1.697552
1.231999 -0.093013 1.796455
1.280150 -0.085497 1.796455
1.280150 -0.090967 1.771729
1.231999 -0.091646 1.771729
1.183848 -0.100530 1.796455
1.231999 -0.093013 1.796455
1.231999 -0.091646 1.771729
1.183848 -0.092325 1.771729
1.183848 -0.092325 1.771729
1.231999 -0.091646 1.771729
1.231999 -0.090279 1.747004
1.183848 -0.084120 1.747004
1.328301 -0.077980 1.796455
1.376451 -0.070464 1.796455
1.376451 -0.089610 1.771729
1.328301 -0.090289 1.771729
1.280150 -0.085497 1.796455
1.328301 -0.077980 1.796455
1.328301 -0.090289 1.771729
1.280150 -0.090967 1.771729
1.280150 -0.090967 1.771729
1.328301 -0.090289 1.771729
1.328301 -0.102597 1.747004
1.280150 -0.096438 1.747004
1.231998 -0.080510 1.351393
1.280149 -0.079248 1.351393
1.280149 -0.085758 1.326668
1.231998 -0.091415 1.326668
1.183848 -0.081772 1.351393
1.231998 -0.080510 1.351393
1.231998 -0.091415 1.326668
1.183848 -0.097071 1.326668
1.183848 -0.097071 1.326668
1.231998 -0.091415 1.326668
1.231998 -0.102319 1.301942
1.183848 -0.112370 1.301942
1.280149 -0.092268 1.301942
1.280149 -0.106718 1.277216
1.231998 -0.112526 1.277216
1.231998 -0.058700 1.400845
1.280149 -0.066228 1.400845
1.280149 -0.072738 1.376119
1.231998 -0.069605 1.376119
1.183848 -0.051173 1.400845
1.231998 -0.058700 1.400845
1.231998 -0.069605 1.376119
1.183848 -0.066472 1.376119
1.183848 -0.066472 1.376119
1.231998 -0.069605 1.376119
1.231998 -0.080510 1.351393
1.183848 -0.081772 1.351393
1.328300 -0.073756 1.400845
1.376451 -0.081284 1.400845
1.376451 -0.079004 1.376119
1.328300 -0.075871 1.376119
1.280149 -0.066228 1.400845
1.328300 -0.073756 1.400845
1.328300 -0.075871 1.376119
1.280149 -0.072738 1.376119
1.280149 -0.072738 1.376119
1.328300 -0.075871 1.376119
1.328300 -0.077986 1.351393
1.280149 -0.079248 1.351393
1.231998 -0.163563 1.153588
1.280149 -0.178970 1.153588
1.280149 -0.193420 1.128862
1.231998 -0.173770 1.128862
1.183847 -0.148156 1.153588
1.231998 -0.163563 1.153588
1.231998 -0.173770 1.128862
1.183847 -0.154120 1.128862
1.183847 -0.154120 1.128862
1.231998 -0.173770 1.128862
1.231998 -0.183977 1.104137
1.183847 -0.160084 1.104137
1.231998 -0.143148 1.203039
1.280149 -0.150069 1.203039
1.280149 -0.164519 1.178314
1.231998 -0.153355 1.178314
1.183847 -0.136227 1.203039
1.231998 -0.143148 1.203039
1.231998 -0.153355 1.178314
1.183847 -0.142192 1.178314
1.183847 -0.142192 1.178314
1.231998 -0.153355 1.178314
1.231998 -0.163563 1.153588
1.183847 -0.148156 1.153588
1.328300 -0.156990 1.203039
1.376451 -0.163911 1.203039
1.376451 -0.186847 1.178314
1.328300 -0.175683 1.178314
1.280149 -0.150069 1.203039
1.328300 -0.156990 1.203039
1.328300 -0.175683 1.178314
1.280149 -0.164519 1.178314
1.280149 -0.164519 1.178314
1.328300 -0.175683 1.178314
1.328300 -0.194376 1.153588
1.280149 -0.178970 1.153588
1.231998 -0.137312 0.955783
1.280149 -0.134600 0.955783
1.280149 -0.122389 0.931057
1.231998 -0.129535 0.931057
1.183847 -0.140025 0.955783
1.231998 -0.137312 0.955783
1.231998 -0.129535 0.931057
1.183847 -0.136681 0.931057
1.183847 -0.136681 0.931057
1.231998 -0.129535 0.931057
1.231998 -0.121757 0.906332
1.183847 -0.133338 0.906332
1.231998 -0.152867 1.005234
1.280149 -0.159024 1.005234
1.280149 -0.146812 0.980509
1.231998 -0.145090 0.980509
1.183847 -0.146711 1.005234
1.231998 -0.152867 1.005234
1.231998 -0.145090 0.980509
1.183847 -0.143368 0.980509
1.183847 -0.143368 0.980509
1.231998 -0.145090 0.980509
1.231998 -0.137312 0.955783
1.183847 -0.140025 0.955783
1.328300 -0.165180 1.005234
1.376451 -0.171336 1.005234
1.376451 -0.150256 0.980509
1.328300 -0.148534 0.980509
1.280149 -0.159024 1.005234
1.328300 -0.165180 1.005234
1.328300 -0.148534 0.980509
1.280149 -0.146812 0.980509
1.280149 -0.146812 0.980509
1.328300 -0.148534 0.980509
1.328300 -0.131888 0.955783
1.280149 -0.134600 0.955783
-1.079245 -0.081630 1.944810
-1.031094 -0.090754 1.944810
-1.031094 -0.082718 1.920084
-1.079245 -0.067024 1.920084
-1.127396 -0.072505 1.944810
-1.079245 -0.081630 1.944810
-1.079245 -0.067024 1.920084
-1.127396 -0.051330 1.920084
-1.127396 -0.051330 1.920084
-1.079245 -0.067024 1.920084
-1.079245 -0.052418 1.895359
-1.127396 -0.030154 1.895359
-1.079245 -0.110842 1.994261
-1.031094 -0.106827 1.994261
-1.031094 -0.098791 1.969536
-1.079245 -0.096236 1.969536
-1.127396 -0.114857 1.994261
-1.079245 -0.110842 1.994261
-1.079245 -0.096236 1.969536
-1.127396 -0.093681 1.969536
-1.127396 -0.093681 1.969536
-1.079245 -0.096236 1.969536
-1.079245 -0.081630 1.944810
-1.127396 -0.072505 1.944810
-0.982943 -0.102813 1.994261
-0.934792 -0.098798 1.994261
-0.934792 -0.103901 1.969536
-0.982943 -0.101346 1.969536
-1.031094 -0.106827 1.994261
-0.982943 -0.102813 1.994261
-0.982943 -0.101346 1.969536
-1.031094 -0.098791 1.969536
-1.031094 -0.098791 1.969536
-0.982943 -0.101346 1.969536
-0.982943 -0.099879 1.944810
-1.031094 -0.090754 1.944810
-0.742189 -0.189404 1.944810
-0.694038 -0.209504 1.944810
-0.694038 -0.204130 1.920084
-0.742189 -0.186125 1.920084
-0.694038 -0.198757 1.895359
-0.742189 -0.182847 1.895359
-0.742189 -0.192682 1.969535
-0.694038 -0.214878 1.969535
-0.742189 -0.195961 1.994261
-0.694038 -0.220252 1.994261
-0.742189 -0.199239 2.018987
-0.694038 -0.225625 2.018987
-0.742188 -0.202518 2.043712
-0.694038 -0.230999 2.043712
-0.742188 -0.205796 2.068438
-0.694038 -0.236373 2.068438
-0.742188 -0.209075 2.093164
-0.694038 -0.241747 2.093164
-0.645887 -0.244542 1.994261
-0.597736 -0.268833 1.994261
-0.597736 -0.259269 1.969535
-0.645887 -0.237073 1.969535
-0.597736 -0.249704 1.944810
-0.645887 -0.229604 1.944810
-0.645887 -0.252011 2.018987
-0.597736 -0.278397 2.018987
-0.645887 -0.259480 2.043712
-0.597736 -0.287962 2.043712
-0.645887 -0.266949 2.068438
-0.597736 -0.297526 2.068438
-0.645887 -0.274418 2.093164
-0.597736 -0.307090 2.093164
-0.597736 -0.240140 1.920084
-0.645887 -0.222135 1.920084
-0.597736 -0.230576 1.895358
-0.645887 -0.214666 1.895358
-0.356981 -0.171276 1.944810
-0.308830 -0.146644 1.944810
-0.308830 -0.145615 1.920084
-0.356981 -0.168121 1.920084
-0.308830 -0.144587 1.895358
-0.356981 -0.164967 1.895358
-0.356981 -0.174430 1.969535
-0.308830 -0.147672 1.969535
-0.356981 -0.177585 1.994261
-0.308830 -0.148700 1.994261
-0.356981 -0.180739 2.018987
-0.308830 -0.149728 2.018987
-0.356981 -0.183894 2.043712
-0.308830 -0.150756 2.043712
-0.356981 -0.187048 2.068438
-0.308830 -0.151784 2.068438
-0.356981 -0.190202 2.093164
-0.308830 -0.152813 2.093164
-0.260679 -0.119815 1.994261
-0.212528 -0.090930 1.994261
-0.212529 -0.094155 1.969535
-0.260679 -0.120913 1.969535
-0.212529 -0.097379 1.944810
-0.260679 -0.122011 1.944810
-0.260679 -0.118717 2.018987
-0.212528 -0.087706 2.018987
-0.260679 -0.117619 2.043712
-0.212528 -0.084482 2.043712
-0.260679 -0.116521 2.068438
-0.212528 -0.081257 2.068438
-0.260679 -0.115423 2.093164
-0.212528 -0.078033 2.093163
-0.212529 -0.100604 1.920084
-0.260679 -0.123109 1.920084
-0.212529 -0.103828 1.895358
-0.260679 -0.124208 1.895358
0.076377 -0.164405 1.944809
0.124528 -0.182737 1.944809
0.124528 -0.220870 1.920084
0.076377 -0.197075 1.920084
0.028226 -0.146073 1.944809
0.076377 -0.164405 1.944809
0.076377 -0.197075 1.920084
0.028226 -0.173279 1.920084
0.028226 -0.173279 1.920084
0.076377 -0.197075 1.920084
0.076377 -0.229744 1.895358
0.028226 -0.200485 1.895358
0.076377 -0.099065 1.994261
0.124528 -0.106469 1.994261
0.124528 -0.144603 1.969535
0.076377 -0.131735 1.969535
0.028226 -0.091661 1.994261
0.076377 -0.099065 1.994261
0.076377 -0.131735 1.969535
0.028226 -0.118867 1.969535
0.028226 -0.118867 1.969535
0.076377 -0.131735 1.969535
0.076377 -0.164405 1.944809
0.028226 -0.146073 1.944809
0.172679 -0.113873 1.994261
0.220830 -0.121277 1.994261
0.220830 -0.170339 1.969535
0.172679 -0.157471 1.969535
0.220830 -0.072216 2.018986
0.268981 -0.123199 1.994261
0.268981 -0.087135 2.018986
0.124528 -0.106469 1.994261
0.172679 -0.113873 1.994261
0.172679 -0.157471 1.969535
0.124528 -0.144603 1.969535
0.124528 -0.144603 1.969535
0.172679 -0.157471 1.969535
0.172679 -0.201068 1.944809
0.124528 -0.182737 1.944809
0.461584 -0.099041 1.944809
0.509735 -0.074969 1.944809
0.509735 -0.046049 1.920084
0.461584 -0.083117 1.920084
0.413433 -0.123113 1.944809
0.461584 -0.099041 1.944809
0.461584 -0.083117 1.920084
0.413433 -0.120186 1.920084
0.413433 -0.120186 1.920084
0.461584 -0.083117 1.920084
0.461584 -0.067194 1.895358
0.413433 -0.117259 1.895358
0.461584 -0.130888 1.994261
0.509735 -0.132810 1.994261
0.509735 -0.103890 1.969535
0.461584 -0.114965 1.969535
0.413433 -0.128966 1.994261
0.461584 -0.130888 1.994261
0.461584 -0.114965 1.969535
0.413433 -0.126039 1.969535
0.413433 -0.126039 1.969535
0.461584 -0.114965 1.969535
0.461584 -0.099041 1.944809
0.413433 -0.123113 1.944809
0.557886 -0.134733 1.994261
0.606037 -0.136655 1.994260
0.606037 -0.081740 1.969535
0.557886 -0.092815 1.969535
0.509735 -0.132810 1.994261
0.557886 -0.134733 1.994261
0.557886 -0.092815 1.969535
0.509735 -0.103890 1.969535
0.509735 -0.103890 1.969535
0.557886 -0.092815 1.969535
0.557886 -0.050898 1.944809
0.509735 -0.074969 1.944809
0.846792 -0.185616 1.944809
0.894942 -0.217373 1.944809
0.894942 -0.200618 1.920083
0.846792 -0.162500 1.920083
0.798641 -0.153858 1.944809
0.846792 -0.185616 1.944809
0.846792 -0.162500 1.920083
0.798641 -0.124382 1.920083
0.846792 -0.231847 1.994260
0.894942 -0.250885 1.994260
0.894942 -0.234129 1.969535
0.846792 -0.208731 1.969535
0.798641 -0.212808 1.994260
0.846792 -0.231847 1.994260
0.846792 -0.208731 1.969535
0.798641 -0.183333 1.969535
0.798641 -0.183333 1.969535
0.846792 -0.208731 1.969535
0.846792 -0.185616 1.944809
0.798641 -0.153858 1.944809
0.943093 -0.269924 1.994260
0.991244 -0.288962 1.994260
0.991244 -0.284926 1.969535
0.943093 -0.259527 1.969535
0.894942 -0.250885 1.994260
0.943093 -0.269924 1.994260
0.943093 -0.259527 1.969535
0.894942 -0.234129 1.969535
0.894942 -0.234129 1.969535
0.943093 -0.259527 1.969535
0.943093 -0.249131 1.944809
0.894942 -0.217373 1.944809
-0.694038 -0.271990 1.747005
-0.645887 -0.264992 1.747005
-0.645887 -0.273380 1.722279
